ncols 140
nrows 140
xllcorner 0.0
yllcorner 0.0
cellsize 100.0
NODATA_value -9999
146.	143.	144.	147.	148.	143.	140.	143.	140.	136.	137.	136.	138.	141.	146.	144.	139.	137.	132.	130.	129.	133.	137.	138.	139.	136.	137.	134.	129.	129.	128.	125.	127.	123.	120.	122.	120.	124.	122.	124.	124.	126.	123.	128.	128.	133.	130.	122.	112.	109.	109.	109.	118.	115.	111.	112.	112.	117.	123.	121.	110.	108.	98.	93.	99.	107.	101.	115.	115.	117.	119.	128.	137.	135.	133.	134.	135.	128.	127.	121.	116.	122.	123.	119.	117.	117.	114.	111.	107.	108.	101.	99.	96.	91.	94.	90.	86.	83.	83.	83.	85.	87.	87.	84.	86.	85.	83.	69.	69.	72.	66.	62.	64.	64.	63.	64.	62.	63.	64.	64.	64.	63.	65.	66.	65.	67.	67.	69.	72.	73.	72.	72.	72.	72.	80.	78.	72.	72.	76.	73.
144.	142.	144.	147.	146.	147.	144.	137.	136.	138.	136.	138.	136.	140.	139.	143.	138.	140.	130.	125.	125.	131.	137.	134.	140.	133.	129.	131.	128.	127.	127.	127.	125.	121.	119.	118.	119.	117.	117.	116.	118.	122.	119.	125.	126.	127.	124.	115.	112.	108.	108.	109.	119.	116.	117.	118.	118.	123.	117.	113.	108.	104.	98.	90.	105.	113.	110.	113.	114.	121.	132.	132.	141.	138.	133.	133.	132.	126.	127.	126.	124.	124.	123.	125.	122.	118.	115.	108.	104.	101.	96.	97.	101.	105.	98.	97.	90.	86.	87.	90.	89.	89.	87.	84.	86.	85.	85.	73.	75.	69.	69.	64.	65.	65.	64.	64.	62.	65.	64.	65.	64.	64.	63.	64.	63.	67.	67.	66.	69.	72.	72.	71.	71.	73.	88.	85.	73.	72.	73.	73.
142.	140.	139.	146.	144.	147.	148.	143.	140.	142.	136.	137.	136.	136.	137.	141.	136.	133.	127.	124.	121.	124.	129.	129.	138.	136.	129.	130.	128.	125.	125.	125.	119.	119.	119.	126.	116.	116.	116.	116.	121.	124.	118.	125.	128.	128.	121.	114.	111.	110.	109.	114.	117.	118.	117.	114.	117.	122.	115.	114.	113.	107.	100.	91.	104.	106.	111.	118.	122.	131.	137.	136.	142.	138.	132.	130.	128.	128.	127.	125.	125.	123.	124.	126.	123.	118.	116.	110.	99.	96.	95.	97.	104.	106.	105.	103.	96.	93.	90.	92.	92.	89.	86.	87.	85.	88.	82.	75.	83.	70.	65.	64.	65.	64.	63.	63.	64.	64.	63.	63.	65.	63.	63.	66.	64.	63.	64.	65.	68.	71.	71.	71.	72.	73.	82.	81.	78.	73.	73.	75.
139.	144.	137.	139.	144.	147.	148.	147.	148.	147.	140.	141.	138.	136.	134.	134.	130.	127.	127.	121.	121.	121.	121.	121.	129.	130.	128.	125.	127.	124.	119.	120.	117.	118.	120.	133.	129.	119.	115.	119.	122.	123.	122.	126.	123.	120.	115.	113.	118.	116.	115.	116.	116.	120.	118.	123.	124.	124.	125.	122.	115.	111.	100.	105.	105.	109.	114.	121.	126.	130.	137.	140.	144.	140.	133.	130.	127.	126.	129.	127.	120.	119.	122.	123.	120.	117.	116.	110.	100.	96.	96.	96.	104.	109.	108.	104.	99.	95.	91.	92.	96.	92.	88.	83.	80.	91.	82.	72.	77.	73.	66.	64.	63.	64.	64.	65.	62.	63.	62.	64.	63.	64.	67.	66.	70.	64.	64.	65.	67.	70.	70.	71.	71.	73.	79.	80.	80.	78.	78.	78.
139.	142.	144.	144.	144.	147.	147.	146.	147.	147.	140.	140.	140.	135.	131.	131.	127.	129.	128.	121.	121.	121.	121.	121.	122.	129.	129.	128.	129.	124.	119.	118.	118.	118.	123.	133.	129.	120.	122.	124.	125.	129.	130.	123.	117.	117.	113.	115.	116.	114.	112.	121.	121.	122.	125.	128.	127.	126.	125.	122.	121.	109.	98.	108.	115.	120.	123.	123.	127.	131.	137.	143.	143.	137.	133.	131.	128.	129.	128.	126.	121.	120.	118.	115.	118.	116.	114.	108.	102.	96.	96.	95.	100.	108.	103.	102.	101.	97.	93.	94.	94.	93.	90.	83.	79.	83.	81.	78.	72.	73.	65.	65.	63.	64.	62.	63.	64.	65.	63.	64.	64.	64.	68.	66.	67.	66.	64.	64.	65.	69.	70.	73.	72.	71.	74.	77.	86.	77.	81.	76.
142.	143.	143.	144.	144.	142.	135.	140.	146.	145.	143.	140.	139.	138.	133.	129.	131.	133.	133.	132.	127.	123.	121.	122.	123.	131.	134.	131.	130.	124.	121.	119.	127.	123.	127.	129.	122.	123.	128.	126.	127.	125.	123.	116.	118.	121.	123.	123.	120.	119.	123.	123.	125.	126.	129.	127.	123.	124.	123.	124.	117.	106.	107.	120.	121.	113.	116.	126.	129.	127.	128.	139.	141.	138.	133.	128.	129.	126.	124.	124.	122.	121.	116.	121.	120.	117.	114.	103.	104.	109.	96.	104.	101.	102.	100.	100.	102.	96.	92.	94.	95.	92.	89.	84.	81.	83.	83.	73.	72.	73.	68.	63.	64.	63.	62.	64.	63.	64.	61.	63.	64.	65.	68.	73.	67.	66.	65.	65.	65.	69.	71.	72.	76.	74.	72.	75.	89.	73.	82.	79.
142.	143.	142.	140.	139.	139.	133.	130.	138.	140.	141.	137.	136.	134.	138.	136.	133.	132.	131.	132.	129.	130.	123.	129.	130.	133.	136.	134.	132.	125.	123.	130.	133.	133.	128.	121.	120.	128.	129.	126.	121.	120.	124.	119.	117.	124.	129.	127.	122.	125.	130.	126.	129.	127.	127.	125.	122.	121.	119.	120.	116.	109.	122.	125.	127.	123.	118.	123.	127.	127.	129.	131.	132.	134.	130.	122.	121.	121.	123.	125.	124.	117.	118.	118.	117.	113.	110.	107.	105.	107.	99.	112.	105.	96.	97.	97.	102.	96.	96.	99.	97.	90.	90.	85.	85.	88.	82.	74.	75.	75.	67.	64.	61.	64.	63.	65.	64.	64.	64.	63.	64.	66.	71.	76.	68.	68.	66.	65.	65.	68.	71.	73.	76.	74.	72.	72.	75.	73.	83.	79.
135.	140.	143.	137.	132.	133.	131.	129.	136.	137.	132.	132.	133.	133.	140.	139.	133.	131.	130.	130.	130.	130.	132.	135.	132.	132.	136.	136.	133.	129.	129.	134.	132.	129.	124.	122.	128.	132.	128.	124.	118.	118.	125.	119.	117.	122.	125.	125.	121.	130.	128.	129.	131.	131.	126.	125.	122.	120.	120.	124.	108.	119.	130.	131.	130.	129.	123.	124.	128.	129.	129.	133.	133.	133.	129.	118.	115.	120.	128.	129.	127.	120.	123.	121.	120.	116.	111.	102.	105.	105.	99.	110.	103.	106.	116.	103.	102.	99.	101.	104.	100.	91.	90.	90.	88.	89.	84.	78.	77.	76.	69.	65.	63.	63.	61.	64.	63.	64.	63.	64.	64.	66.	74.	75.	71.	69.	66.	66.	65.	67.	71.	71.	73.	75.	71.	71.	71.	72.	79.	81.
120.	126.	137.	133.	124.	128.	131.	127.	131.	131.	132.	131.	132.	132.	131.	135.	131.	126.	127.	126.	130.	130.	130.	130.	129.	131.	133.	135.	132.	129.	133.	132.	133.	126.	126.	126.	126.	125.	123.	121.	120.	118.	118.	119.	118.	118.	121.	121.	125.	128.	126.	128.	131.	134.	131.	125.	120.	117.	117.	124.	123.	122.	123.	132.	130.	131.	128.	128.	129.	127.	128.	132.	135.	133.	129.	123.	122.	124.	128.	129.	126.	126.	125.	121.	122.	120.	116.	110.	108.	105.	101.	107.	111.	112.	110.	106.	100.	99.	102.	104.	99.	94.	91.	97.	93.	88.	84.	85.	73.	75.	69.	64.	64.	64.	64.	64.	68.	65.	63.	64.	65.	67.	73.	76.	72.	70.	69.	69.	68.	66.	67.	69.	69.	70.	71.	70.	71.	85.	85.	85.
117.	115.	124.	124.	121.	125.	127.	126.	128.	129.	132.	133.	134.	131.	129.	133.	128.	125.	125.	124.	123.	126.	127.	125.	128.	130.	131.	131.	131.	132.	138.	136.	135.	131.	125.	124.	124.	122.	122.	120.	116.	117.	117.	117.	117.	117.	118.	119.	129.	124.	124.	125.	126.	130.	126.	124.	119.	113.	117.	127.	127.	121.	119.	124.	124.	130.	129.	129.	132.	133.	134.	137.	134.	133.	127.	127.	129.	130.	129.	123.	115.	115.	120.	122.	122.	122.	117.	115.	113.	111.	102.	104.	111.	108.	108.	104.	105.	108.	103.	102.	101.	94.	93.	102.	100.	84.	81.	82.	73.	72.	68.	65.	65.	63.	65.	66.	65.	61.	62.	66.	64.	65.	70.	76.	73.	71.	70.	72.	66.	66.	65.	69.	69.	69.	73.	72.	70.	82.	82.	81.
116.	115.	122.	124.	118.	121.	123.	124.	125.	128.	129.	133.	132.	132.	128.	128.	124.	125.	124.	126.	124.	122.	122.	121.	124.	128.	130.	134.	132.	135.	135.	135.	131.	131.	125.	120.	122.	121.	122.	122.	120.	118.	117.	117.	116.	118.	120.	122.	130.	130.	128.	125.	125.	126.	124.	125.	121.	116.	121.	124.	122.	120.	122.	121.	126.	128.	130.	132.	136.	136.	139.	137.	135.	130.	126.	132.	129.	130.	131.	127.	121.	111.	114.	120.	119.	118.	118.	115.	112.	109.	100.	105.	110.	108.	107.	105.	104.	107.	105.	104.	103.	96.	93.	96.	99.	90.	85.	84.	73.	75.	70.	66.	65.	65.	65.	65.	65.	62.	67.	69.	64.	66.	68.	72.	73.	70.	70.	71.	70.	67.	66.	69.	69.	71.	77.	73.	71.	76.	73.	76.
114.	119.	118.	119.	115.	117.	120.	125.	124.	126.	127.	126.	129.	128.	127.	131.	129.	126.	124.	123.	122.	119.	118.	123.	123.	126.	128.	129.	129.	133.	135.	130.	131.	127.	122.	119.	120.	122.	124.	129.	127.	120.	120.	121.	127.	119.	119.	121.	124.	127.	120.	123.	126.	128.	128.	125.	130.	127.	124.	127.	121.	121.	124.	124.	128.	126.	127.	132.	134.	133.	136.	136.	134.	132.	129.	131.	132.	132.	133.	131.	130.	128.	125.	120.	118.	118.	114.	112.	106.	105.	105.	112.	115.	113.	108.	109.	106.	110.	108.	107.	107.	103.	98.	96.	102.	103.	98.	91.	74.	72.	71.	66.	64.	67.	67.	65.	66.	67.	71.	74.	71.	67.	67.	70.	72.	70.	70.	73.	73.	68.	67.	67.	69.	70.	74.	70.	68.	70.	71.	71.
112.	119.	115.	113.	111.	116.	121.	127.	125.	127.	127.	128.	127.	122.	127.	124.	125.	125.	122.	121.	120.	119.	122.	123.	125.	121.	126.	129.	131.	125.	126.	123.	125.	125.	122.	119.	121.	121.	120.	124.	123.	122.	124.	126.	130.	118.	119.	124.	121.	119.	120.	125.	126.	129.	130.	129.	131.	133.	131.	132.	122.	120.	123.	122.	126.	128.	122.	125.	127.	129.	131.	132.	131.	131.	132.	131.	132.	132.	131.	127.	127.	126.	124.	119.	117.	116.	111.	111.	105.	107.	114.	120.	119.	118.	118.	116.	112.	108.	109.	109.	109.	102.	97.	96.	94.	100.	100.	86.	73.	73.	69.	66.	67.	65.	65.	65.	66.	65.	71.	73.	70.	67.	65.	68.	70.	70.	71.	75.	72.	69.	67.	66.	69.	69.	72.	69.	68.	69.	70.	70.
112.	109.	107.	109.	109.	116.	121.	126.	126.	136.	134.	127.	123.	121.	122.	122.	121.	121.	124.	120.	120.	118.	121.	120.	124.	123.	124.	135.	129.	126.	126.	125.	126.	126.	122.	122.	122.	121.	121.	121.	121.	121.	125.	127.	126.	120.	125.	125.	119.	119.	119.	125.	130.	131.	136.	137.	138.	139.	139.	136.	129.	123.	122.	123.	122.	123.	121.	122.	123.	127.	127.	126.	127.	133.	130.	132.	134.	130.	128.	128.	127.	128.	124.	123.	120.	113.	105.	103.	101.	102.	111.	120.	119.	119.	120.	119.	113.	107.	111.	110.	107.	103.	99.	96.	94.	97.	96.	82.	73.	73.	70.	70.	69.	65.	65.	64.	66.	67.	70.	74.	64.	63.	64.	66.	70.	71.	70.	74.	77.	72.	68.	66.	68.	69.	69.	68.	69.	70.	68.	69.
107.	100.	100.	107.	114.	117.	121.	124.	125.	126.	128.	126.	121.	117.	119.	121.	120.	122.	121.	117.	118.	120.	120.	119.	118.	122.	126.	134.	129.	125.	126.	127.	125.	122.	121.	125.	124.	123.	123.	121.	119.	123.	125.	126.	128.	121.	126.	125.	120.	118.	119.	123.	131.	132.	140.	144.	139.	142.	143.	135.	128.	121.	121.	124.	131.	129.	125.	127.	126.	127.	124.	124.	130.	133.	128.	130.	130.	123.	127.	125.	126.	126.	123.	121.	123.	113.	107.	105.	101.	99.	100.	114.	119.	119.	119.	117.	112.	110.	108.	107.	103.	102.	100.	100.	95.	93.	90.	81.	78.	75.	75.	72.	71.	66.	65.	66.	64.	67.	66.	68.	66.	64.	64.	65.	67.	68.	68.	71.	74.	77.	71.	66.	66.	67.	66.	69.	67.	66.	68.	69.
102.	98.	97.	107.	111.	115.	117.	120.	124.	128.	128.	125.	121.	116.	120.	124.	124.	122.	120.	117.	116.	117.	120.	118.	116.	121.	128.	131.	124.	123.	126.	126.	126.	123.	122.	124.	122.	124.	121.	121.	124.	128.	129.	126.	128.	124.	124.	125.	119.	118.	121.	120.	125.	129.	137.	144.	143.	146.	142.	135.	123.	121.	123.	124.	133.	130.	126.	131.	126.	125.	124.	127.	135.	135.	133.	131.	132.	128.	127.	124.	123.	124.	122.	120.	121.	115.	111.	106.	104.	103.	99.	106.	112.	111.	109.	106.	103.	104.	106.	108.	105.	104.	106.	110.	104.	93.	88.	83.	76.	73.	69.	75.	75.	68.	64.	66.	66.	65.	66.	65.	65.	65.	64.	65.	65.	68.	68.	70.	73.	72.	70.	67.	65.	68.	67.	68.	69.	67.	68.	68.
99.	96.	102.	114.	112.	109.	113.	114.	118.	123.	125.	119.	116.	114.	120.	122.	125.	120.	118.	113.	114.	116.	117.	116.	124.	118.	118.	119.	123.	126.	130.	127.	125.	122.	123.	123.	121.	119.	122.	122.	132.	130.	129.	122.	120.	119.	120.	125.	113.	117.	120.	123.	125.	128.	133.	143.	150.	145.	140.	130.	123.	121.	124.	134.	131.	127.	128.	131.	122.	120.	122.	126.	128.	133.	130.	131.	129.	127.	126.	123.	124.	123.	118.	119.	119.	109.	104.	103.	100.	101.	99.	99.	101.	101.	100.	100.	99.	101.	105.	108.	111.	112.	114.	114.	113.	100.	104.	95.	78.	72.	71.	74.	78.	75.	67.	64.	67.	67.	67.	65.	66.	66.	67.	66.	66.	67.	66.	69.	70.	70.	67.	66.	66.	67.	67.	67.	68.	66.	66.	67.
96.	96.	102.	111.	109.	107.	110.	111.	116.	120.	120.	116.	117.	113.	118.	120.	123.	117.	113.	114.	118.	119.	117.	126.	126.	115.	116.	119.	130.	130.	129.	131.	128.	122.	121.	122.	120.	119.	121.	124.	129.	124.	121.	120.	117.	114.	120.	126.	113.	117.	120.	124.	125.	125.	130.	143.	150.	145.	137.	133.	132.	127.	128.	132.	132.	130.	126.	130.	120.	122.	122.	127.	134.	134.	131.	129.	127.	127.	124.	124.	124.	122.	117.	116.	111.	104.	100.	99.	100.	103.	104.	101.	99.	100.	99.	99.	101.	109.	107.	108.	111.	115.	114.	115.	116.	103.	105.	98.	87.	75.	72.	70.	76.	81.	69.	67.	66.	69.	69.	68.	67.	65.	65.	65.	66.	64.	65.	68.	69.	69.	67.	65.	64.	65.	67.	67.	67.	66.	66.	67.
94.	95.	104.	107.	110.	110.	108.	108.	112.	116.	119.	113.	113.	113.	111.	117.	119.	114.	113.	116.	117.	124.	127.	128.	124.	117.	119.	127.	130.	127.	123.	127.	127.	123.	127.	123.	120.	120.	119.	122.	119.	118.	117.	115.	113.	111.	110.	115.	113.	115.	120.	124.	127.	128.	131.	139.	145.	142.	138.	135.	136.	130.	132.	136.	135.	133.	134.	135.	132.	129.	132.	135.	133.	130.	131.	124.	125.	125.	126.	124.	124.	122.	114.	112.	109.	109.	113.	113.	107.	104.	105.	108.	107.	100.	99.	99.	100.	104.	104.	105.	112.	116.	115.	122.	119.	107.	107.	100.	89.	79.	71.	72.	75.	80.	76.	68.	67.	70.	69.	68.	69.	67.	65.	69.	68.	67.	66.	65.	67.	68.	67.	67.	66.	65.	66.	65.	66.	67.	65.	66.
94.	95.	105.	112.	109.	109.	111.	112.	116.	114.	112.	114.	110.	110.	111.	112.	113.	114.	113.	117.	121.	127.	127.	123.	115.	119.	120.	115.	125.	119.	121.	129.	131.	121.	122.	121.	121.	119.	116.	116.	124.	125.	116.	111.	110.	110.	110.	117.	120.	118.	123.	128.	130.	132.	132.	134.	135.	139.	134.	136.	136.	134.	135.	139.	135.	126.	129.	132.	123.	126.	135.	133.	128.	128.	127.	124.	123.	122.	123.	121.	115.	115.	107.	106.	105.	109.	114.	112.	107.	105.	106.	110.	110.	108.	109.	114.	116.	104.	103.	103.	111.	112.	113.	120.	121.	114.	111.	107.	95.	88.	78.	75.	79.	78.	71.	68.	67.	69.	69.	68.	69.	67.	68.	71.	70.	67.	66.	65.	66.	67.	67.	65.	65.	64.	65.	65.	65.	66.	66.	66.
93.	96.	107.	117.	110.	108.	110.	111.	116.	116.	114.	113.	111.	111.	109.	113.	115.	116.	116.	116.	123.	126.	125.	118.	119.	119.	115.	114.	125.	121.	119.	130.	137.	126.	121.	121.	122.	120.	117.	119.	128.	124.	119.	111.	110.	110.	110.	121.	119.	120.	124.	126.	129.	128.	129.	131.	133.	133.	134.	138.	133.	132.	135.	138.	133.	127.	125.	122.	124.	127.	135.	132.	124.	125.	124.	121.	121.	119.	120.	118.	113.	107.	104.	103.	103.	112.	114.	111.	104.	106.	109.	112.	112.	108.	108.	111.	116.	112.	111.	108.	109.	113.	115.	117.	116.	113.	111.	108.	100.	95.	86.	78.	81.	81.	73.	71.	69.	67.	66.	67.	69.	68.	65.	70.	70.	68.	65.	65.	66.	65.	66.	66.	65.	64.	65.	64.	64.	65.	65.	66.
94.	94.	99.	105.	104.	102.	105.	109.	108.	113.	115.	112.	110.	109.	110.	117.	119.	122.	116.	120.	123.	125.	119.	121.	122.	116.	112.	116.	125.	123.	129.	139.	138.	133.	123.	125.	128.	121.	120.	124.	123.	119.	110.	110.	110.	110.	110.	122.	125.	125.	126.	125.	126.	130.	131.	132.	132.	132.	132.	139.	133.	130.	131.	133.	134.	132.	129.	126.	124.	128.	132.	128.	121.	117.	115.	117.	116.	115.	112.	113.	109.	113.	103.	102.	104.	111.	109.	112.	108.	114.	111.	111.	113.	111.	107.	105.	115.	112.	112.	109.	109.	114.	117.	115.	112.	109.	107.	108.	103.	101.	98.	87.	79.	78.	79.	77.	72.	67.	67.	67.	68.	69.	65.	67.	72.	69.	67.	67.	68.	65.	65.	66.	69.	74.	68.	66.	67.	65.	65.	68.
93.	94.	98.	102.	100.	99.	102.	103.	103.	106.	110.	109.	108.	109.	114.	121.	121.	125.	120.	115.	125.	123.	122.	121.	123.	116.	118.	113.	123.	129.	135.	131.	129.	127.	128.	126.	125.	126.	117.	112.	111.	110.	110.	112.	111.	110.	110.	122.	126.	125.	127.	128.	129.	126.	129.	131.	128.	131.	131.	138.	135.	134.	138.	130.	134.	133.	128.	126.	127.	128.	128.	126.	119.	111.	109.	115.	114.	110.	110.	111.	107.	113.	103.	103.	106.	108.	108.	108.	112.	113.	107.	107.	107.	110.	109.	112.	117.	112.	112.	110.	107.	108.	113.	118.	119.	112.	108.	107.	107.	105.	102.	92.	88.	86.	86.	80.	73.	68.	66.	67.	68.	66.	66.	66.	70.	70.	68.	69.	68.	66.	65.	65.	71.	73.	71.	70.	65.	65.	65.	66.
94.	93.	95.	101.	102.	99.	101.	102.	104.	106.	103.	108.	108.	109.	113.	120.	121.	124.	120.	113.	125.	121.	120.	128.	121.	122.	120.	115.	123.	126.	125.	124.	128.	128.	126.	126.	125.	122.	112.	110.	110.	110.	119.	121.	112.	110.	110.	120.	128.	125.	128.	127.	126.	121.	127.	136.	137.	135.	135.	141.	132.	132.	136.	130.	132.	134.	130.	130.	126.	125.	126.	124.	118.	113.	111.	112.	113.	111.	119.	117.	110.	111.	103.	107.	107.	109.	108.	108.	109.	113.	108.	106.	109.	113.	111.	120.	119.	115.	114.	110.	107.	108.	114.	119.	117.	116.	106.	105.	105.	104.	100.	91.	88.	90.	89.	80.	74.	70.	67.	66.	68.	67.	65.	65.	66.	70.	68.	68.	68.	67.	67.	66.	70.	70.	72.	74.	69.	65.	66.	67.
92.	93.	93.	97.	97.	100.	105.	104.	108.	107.	104.	114.	111.	108.	109.	112.	118.	121.	119.	109.	117.	117.	117.	125.	124.	119.	114.	118.	121.	116.	117.	120.	126.	126.	125.	128.	128.	113.	110.	110.	110.	121.	123.	119.	118.	110.	110.	117.	122.	126.	127.	125.	127.	127.	139.	143.	140.	138.	142.	137.	129.	128.	126.	127.	137.	136.	131.	124.	121.	122.	125.	126.	124.	122.	117.	118.	119.	126.	126.	120.	113.	110.	104.	114.	114.	113.	108.	107.	106.	107.	105.	105.	109.	113.	112.	119.	118.	114.	113.	109.	108.	110.	111.	113.	111.	107.	105.	103.	103.	107.	97.	93.	92.	95.	92.	83.	74.	72.	72.	72.	71.	70.	66.	66.	65.	70.	68.	67.	68.	67.	67.	65.	66.	69.	77.	76.	77.	72.	65.	70.
96.	98.	101.	96.	93.	100.	104.	102.	105.	106.	101.	114.	112.	110.	109.	111.	118.	120.	117.	106.	112.	114.	118.	126.	119.	112.	112.	118.	117.	115.	115.	116.	123.	125.	127.	129.	123.	111.	110.	110.	114.	119.	118.	116.	113.	110.	110.	114.	121.	125.	126.	124.	122.	131.	139.	144.	135.	136.	140.	135.	127.	125.	126.	137.	139.	137.	127.	123.	121.	121.	125.	128.	124.	122.	123.	120.	122.	127.	123.	116.	111.	114.	104.	110.	112.	111.	111.	108.	106.	105.	107.	105.	107.	111.	109.	115.	115.	112.	109.	109.	110.	108.	109.	107.	107.	103.	104.	102.	102.	111.	97.	93.	97.	97.	93.	79.	73.	73.	72.	72.	71.	74.	66.	66.	65.	67.	70.	68.	67.	68.	65.	67.	67.	69.	76.	74.	78.	79.	68.	80.
103.	98.	95.	96.	95.	102.	102.	101.	104.	107.	105.	109.	113.	114.	109.	107.	112.	118.	113.	103.	116.	118.	116.	114.	113.	110.	110.	114.	113.	115.	119.	129.	133.	131.	129.	128.	121.	112.	113.	111.	123.	122.	125.	116.	110.	110.	110.	111.	117.	121.	122.	123.	126.	134.	138.	141.	133.	137.	137.	134.	127.	124.	125.	138.	140.	136.	133.	128.	126.	123.	122.	125.	122.	122.	120.	120.	129.	126.	118.	109.	106.	113.	103.	106.	108.	111.	105.	106.	108.	107.	110.	105.	109.	110.	109.	111.	111.	109.	110.	110.	109.	109.	108.	107.	106.	106.	106.	101.	98.	109.	102.	97.	98.	96.	93.	79.	78.	77.	73.	75.	71.	73.	71.	66.	66.	66.	66.	69.	68.	68.	68.	68.	70.	73.	79.	76.	76.	76.	70.	77.
97.	93.	92.	91.	98.	102.	101.	99.	102.	110.	107.	107.	112.	111.	106.	110.	111.	112.	108.	107.	112.	116.	111.	110.	111.	108.	108.	118.	119.	128.	135.	136.	136.	131.	126.	124.	121.	119.	122.	123.	127.	125.	126.	120.	115.	114.	110.	110.	110.	119.	123.	123.	126.	132.	138.	137.	128.	133.	131.	129.	128.	127.	127.	141.	140.	136.	134.	130.	129.	127.	128.	128.	123.	121.	119.	131.	126.	120.	119.	109.	104.	106.	103.	110.	111.	111.	105.	102.	103.	102.	102.	106.	112.	110.	110.	108.	117.	109.	108.	109.	108.	108.	109.	107.	107.	106.	108.	104.	99.	102.	103.	103.	101.	96.	93.	81.	79.	77.	74.	73.	71.	72.	71.	67.	66.	67.	66.	67.	69.	69.	69.	71.	82.	89.	74.	73.	73.	67.	70.	74.
97.	91.	91.	92.	97.	97.	98.	100.	105.	110.	108.	108.	113.	109.	103.	110.	109.	107.	102.	107.	108.	112.	111.	112.	109.	109.	108.	119.	123.	127.	136.	136.	136.	131.	123.	118.	121.	124.	123.	125.	129.	129.	127.	120.	113.	114.	109.	108.	111.	121.	123.	125.	129.	128.	135.	135.	128.	129.	131.	129.	128.	127.	128.	140.	141.	136.	134.	127.	128.	128.	128.	127.	117.	119.	125.	130.	122.	117.	114.	105.	104.	103.	106.	112.	111.	111.	105.	102.	102.	102.	101.	104.	108.	106.	114.	114.	120.	115.	113.	111.	108.	115.	115.	113.	108.	108.	115.	115.	101.	104.	101.	104.	102.	96.	90.	84.	80.	75.	75.	75.	72.	72.	71.	69.	67.	67.	67.	66.	71.	70.	71.	73.	81.	87.	75.	74.	74.	70.	71.	77.
100.	97.	97.	93.	100.	107.	103.	102.	109.	106.	110.	110.	107.	106.	108.	106.	106.	101.	101.	107.	106.	108.	112.	114.	112.	110.	115.	119.	117.	117.	125.	129.	131.	126.	115.	115.	119.	120.	121.	124.	131.	129.	125.	120.	115.	118.	109.	107.	114.	123.	122.	120.	120.	119.	122.	123.	122.	125.	127.	134.	128.	128.	127.	134.	141.	140.	134.	123.	127.	132.	130.	125.	113.	117.	130.	125.	121.	116.	109.	106.	103.	108.	112.	111.	112.	109.	105.	102.	101.	100.	103.	103.	109.	117.	120.	122.	121.	114.	115.	113.	111.	115.	116.	114.	113.	113.	111.	114.	113.	107.	101.	105.	106.	101.	92.	84.	90.	83.	75.	74.	73.	72.	71.	68.	67.	67.	68.	68.	69.	72.	70.	71.	74.	79.	80.	85.	89.	84.	83.	86.
99.	97.	98.	96.	101.	110.	102.	102.	109.	104.	110.	109.	101.	99.	109.	105.	104.	96.	105.	112.	111.	107.	115.	115.	115.	111.	116.	115.	116.	116.	123.	128.	125.	118.	120.	120.	125.	123.	124.	124.	127.	127.	127.	117.	112.	114.	108.	113.	120.	122.	121.	118.	118.	116.	117.	120.	120.	120.	127.	130.	126.	124.	127.	129.	141.	138.	133.	125.	127.	132.	130.	122.	115.	121.	133.	125.	122.	123.	120.	108.	106.	114.	118.	111.	111.	109.	106.	104.	104.	103.	103.	102.	112.	119.	124.	123.	117.	111.	114.	115.	113.	117.	117.	112.	112.	111.	111.	113.	113.	108.	104.	103.	105.	99.	91.	92.	94.	83.	75.	74.	73.	72.	71.	68.	68.	68.	68.	69.	68.	72.	70.	71.	75.	86.	85.	89.	88.	85.	86.	91.
102.	99.	98.	100.	104.	106.	102.	110.	107.	108.	107.	104.	97.	106.	107.	98.	121.	108.	105.	112.	109.	106.	114.	115.	118.	118.	116.	115.	119.	118.	121.	127.	118.	115.	121.	126.	125.	129.	128.	125.	126.	127.	122.	121.	119.	116.	111.	116.	119.	119.	117.	115.	116.	115.	118.	123.	125.	123.	128.	131.	132.	128.	124.	132.	139.	138.	135.	127.	132.	128.	121.	116.	117.	132.	131.	128.	125.	124.	120.	117.	112.	114.	114.	116.	116.	109.	111.	111.	107.	104.	106.	103.	109.	120.	125.	123.	120.	115.	118.	114.	113.	117.	121.	116.	110.	113.	110.	110.	109.	111.	109.	100.	104.	104.	98.	100.	88.	77.	75.	74.	72.	71.	71.	69.	69.	71.	72.	68.	66.	67.	69.	71.	74.	83.	86.	89.	91.	96.	96.	94.
102.	98.	100.	100.	104.	106.	104.	106.	103.	106.	108.	108.	111.	108.	103.	109.	126.	121.	110.	108.	104.	107.	106.	113.	116.	116.	120.	114.	118.	117.	123.	125.	114.	114.	124.	125.	124.	127.	129.	124.	122.	126.	123.	122.	122.	118.	113.	116.	116.	116.	115.	114.	114.	116.	120.	124.	122.	126.	130.	127.	123.	124.	125.	134.	140.	135.	134.	129.	130.	127.	121.	115.	125.	131.	130.	128.	124.	121.	117.	120.	110.	111.	120.	124.	118.	111.	109.	113.	112.	108.	105.	104.	111.	118.	120.	118.	119.	118.	120.	117.	115.	119.	120.	118.	113.	110.	111.	111.	111.	112.	108.	107.	109.	106.	104.	102.	92.	80.	75.	74.	72.	73.	71.	71.	69.	76.	75.	72.	69.	67.	68.	71.	73.	76.	81.	88.	88.	92.	95.	98.
103.	98.	94.	95.	104.	105.	104.	107.	102.	102.	105.	103.	108.	108.	101.	108.	119.	121.	109.	105.	102.	102.	105.	112.	113.	116.	119.	116.	116.	115.	122.	121.	108.	117.	123.	120.	119.	122.	127.	123.	120.	125.	123.	123.	121.	114.	111.	114.	116.	118.	114.	115.	114.	116.	121.	124.	122.	124.	129.	125.	122.	125.	125.	134.	138.	132.	128.	129.	131.	128.	121.	118.	130.	133.	131.	126.	124.	121.	120.	114.	109.	108.	117.	122.	117.	112.	111.	113.	116.	108.	102.	103.	112.	117.	116.	120.	121.	119.	120.	120.	118.	116.	118.	114.	116.	112.	114.	113.	112.	109.	109.	109.	106.	106.	101.	96.	89.	85.	77.	74.	76.	76.	72.	72.	71.	76.	79.	76.	77.	70.	68.	69.	74.	76.	77.	90.	86.	91.	97.	99.
103.	101.	94.	94.	110.	104.	103.	105.	105.	100.	101.	101.	105.	106.	99.	103.	120.	118.	105.	109.	111.	111.	113.	115.	115.	116.	117.	117.	110.	110.	112.	108.	108.	111.	119.	117.	117.	115.	116.	116.	116.	120.	119.	119.	118.	116.	112.	112.	113.	116.	118.	117.	115.	115.	121.	125.	123.	124.	124.	124.	128.	124.	124.	130.	135.	129.	125.	127.	133.	127.	126.	126.	133.	133.	134.	127.	123.	116.	117.	112.	112.	111.	114.	118.	114.	112.	114.	116.	111.	104.	105.	109.	114.	115.	115.	120.	128.	122.	118.	118.	118.	116.	113.	112.	115.	112.	116.	114.	111.	107.	106.	108.	108.	104.	100.	94.	92.	92.	80.	76.	81.	74.	74.	81.	72.	76.	75.	73.	77.	73.	71.	69.	72.	75.	76.	84.	87.	92.	98.	99.
105.	100.	100.	94.	109.	99.	102.	105.	110.	104.	108.	105.	100.	99.	97.	105.	119.	117.	104.	108.	114.	112.	113.	115.	115.	116.	116.	116.	110.	108.	109.	105.	110.	114.	119.	123.	118.	117.	115.	115.	117.	121.	117.	118.	119.	118.	113.	113.	114.	119.	116.	116.	116.	118.	125.	131.	125.	124.	127.	130.	133.	125.	126.	127.	129.	128.	125.	125.	133.	129.	124.	126.	132.	131.	132.	126.	120.	110.	111.	108.	113.	113.	114.	118.	114.	108.	109.	114.	113.	110.	110.	112.	115.	116.	115.	123.	128.	123.	118.	117.	116.	116.	116.	115.	115.	110.	114.	113.	107.	107.	106.	107.	108.	107.	104.	93.	93.	96.	84.	91.	88.	77.	81.	86.	74.	72.	74.	72.	74.	72.	76.	71.	72.	75.	78.	88.	88.	93.	95.	98.
107.	104.	102.	93.	97.	97.	96.	98.	108.	107.	107.	107.	100.	97.	99.	108.	119.	116.	110.	107.	112.	106.	113.	112.	116.	114.	115.	114.	109.	108.	107.	113.	115.	116.	122.	123.	122.	120.	119.	120.	122.	120.	121.	121.	118.	117.	116.	117.	114.	114.	117.	114.	115.	118.	122.	132.	127.	126.	129.	132.	129.	126.	125.	128.	127.	127.	126.	124.	130.	130.	128.	124.	126.	126.	126.	118.	116.	113.	109.	108.	115.	116.	116.	111.	110.	105.	105.	108.	109.	113.	112.	114.	118.	120.	123.	122.	125.	125.	121.	119.	117.	118.	118.	117.	119.	118.	112.	110.	111.	107.	103.	104.	103.	101.	105.	105.	100.	96.	91.	89.	81.	77.	74.	79.	78.	72.	72.	74.	71.	72.	73.	71.	74.	74.	82.	92.	87.	90.	93.	98.
102.	104.	109.	101.	95.	97.	100.	94.	98.	103.	105.	107.	108.	106.	104.	110.	107.	110.	112.	108.	110.	112.	113.	113.	113.	114.	115.	113.	110.	105.	100.	107.	117.	122.	121.	123.	120.	117.	123.	122.	124.	122.	125.	120.	115.	116.	115.	116.	115.	114.	115.	116.	119.	122.	122.	133.	133.	134.	132.	130.	130.	124.	126.	131.	127.	128.	123.	119.	125.	132.	128.	124.	124.	122.	119.	112.	110.	108.	107.	108.	112.	115.	114.	110.	106.	106.	107.	109.	116.	116.	116.	117.	119.	123.	127.	128.	129.	127.	129.	122.	126.	127.	125.	122.	121.	119.	114.	112.	112.	112.	113.	109.	106.	101.	101.	104.	103.	97.	90.	90.	94.	84.	84.	90.	80.	73.	72.	75.	73.	73.	75.	71.	73.	75.	82.	88.	88.	88.	97.	95.
107.	107.	107.	111.	99.	96.	101.	96.	95.	99.	100.	103.	108.	104.	104.	106.	105.	108.	110.	108.	109.	110.	113.	111.	109.	114.	114.	113.	108.	103.	96.	102.	112.	117.	121.	121.	119.	121.	125.	123.	123.	122.	124.	120.	117.	119.	120.	117.	116.	117.	114.	119.	123.	120.	125.	130.	128.	129.	126.	131.	134.	129.	124.	132.	128.	128.	122.	121.	120.	127.	124.	121.	120.	119.	115.	112.	112.	107.	109.	110.	110.	112.	114.	110.	107.	108.	111.	112.	117.	117.	117.	117.	120.	122.	126.	125.	127.	128.	127.	129.	134.	130.	127.	125.	123.	119.	116.	117.	117.	116.	112.	107.	108.	107.	107.	105.	99.	96.	96.	97.	96.	93.	88.	90.	85.	77.	73.	79.	77.	74.	71.	72.	71.	73.	77.	83.	86.	88.	96.	96.
106.	108.	113.	114.	106.	99.	104.	95.	92.	91.	91.	93.	106.	103.	98.	109.	111.	110.	109.	109.	106.	107.	112.	108.	108.	113.	115.	111.	109.	97.	97.	107.	113.	115.	117.	117.	116.	118.	126.	123.	120.	121.	123.	122.	119.	119.	121.	122.	118.	122.	120.	123.	121.	128.	136.	137.	134.	127.	133.	129.	131.	128.	123.	124.	120.	120.	121.	120.	119.	120.	118.	116.	120.	120.	115.	111.	112.	113.	109.	107.	110.	113.	116.	113.	115.	112.	116.	118.	116.	115.	116.	120.	117.	119.	126.	131.	127.	128.	129.	124.	127.	126.	119.	122.	126.	123.	121.	119.	116.	112.	112.	114.	114.	112.	111.	104.	100.	98.	101.	99.	94.	95.	91.	86.	90.	78.	74.	76.	75.	79.	75.	73.	72.	72.	75.	79.	82.	87.	93.	93.
101.	105.	110.	115.	109.	107.	101.	95.	90.	93.	90.	94.	100.	94.	96.	105.	112.	114.	118.	119.	110.	113.	120.	121.	111.	109.	113.	110.	106.	98.	93.	100.	106.	111.	118.	120.	117.	119.	127.	123.	120.	122.	125.	120.	118.	118.	118.	119.	118.	117.	120.	123.	123.	125.	131.	135.	130.	133.	131.	137.	138.	134.	126.	121.	119.	121.	123.	119.	119.	119.	117.	116.	118.	116.	118.	116.	117.	114.	111.	109.	108.	116.	117.	113.	110.	114.	124.	124.	117.	115.	116.	120.	119.	119.	123.	124.	124.	120.	119.	117.	118.	117.	116.	117.	126.	123.	124.	122.	115.	118.	116.	115.	114.	114.	109.	103.	100.	99.	103.	99.	101.	96.	100.	94.	92.	84.	74.	72.	72.	75.	76.	72.	71.	72.	76.	75.	78.	86.	91.	90.
106.	107.	111.	112.	111.	107.	99.	98.	93.	91.	95.	98.	95.	92.	95.	103.	113.	116.	119.	122.	116.	114.	119.	119.	114.	111.	112.	110.	107.	97.	93.	95.	102.	113.	119.	124.	120.	118.	124.	124.	121.	120.	124.	121.	119.	118.	117.	118.	118.	117.	120.	125.	124.	127.	128.	130.	133.	138.	142.	142.	137.	134.	128.	124.	121.	120.	122.	119.	120.	117.	116.	118.	115.	111.	116.	120.	117.	113.	110.	109.	112.	113.	115.	114.	116.	119.	125.	123.	118.	118.	116.	119.	122.	119.	117.	117.	117.	116.	116.	116.	116.	116.	116.	125.	125.	124.	122.	122.	119.	120.	117.	117.	115.	113.	112.	103.	100.	102.	101.	104.	101.	99.	98.	97.	88.	83.	75.	73.	72.	73.	73.	73.	71.	72.	80.	77.	77.	82.	85.	89.
109.	104.	106.	107.	108.	106.	97.	96.	98.	98.	98.	98.	94.	96.	99.	103.	103.	112.	115.	120.	116.	113.	116.	117.	113.	115.	116.	115.	113.	99.	96.	99.	110.	119.	121.	122.	123.	123.	121.	124.	125.	124.	126.	125.	122.	118.	118.	117.	120.	120.	126.	126.	126.	126.	127.	128.	137.	145.	145.	137.	135.	132.	125.	124.	125.	123.	122.	119.	120.	124.	122.	115.	115.	123.	122.	118.	113.	112.	113.	114.	111.	109.	110.	115.	122.	123.	122.	120.	119.	118.	118.	118.	118.	118.	119.	116.	116.	119.	116.	116.	116.	121.	126.	126.	128.	125.	121.	119.	119.	117.	117.	118.	114.	115.	117.	105.	108.	107.	109.	107.	102.	99.	95.	95.	85.	83.	81.	79.	78.	71.	71.	72.	73.	74.	81.	76.	79.	90.	85.	84.
111.	105.	103.	107.	108.	103.	99.	97.	96.	97.	94.	93.	95.	107.	102.	103.	101.	109.	116.	118.	112.	109.	114.	116.	117.	115.	118.	113.	106.	97.	97.	112.	121.	127.	123.	117.	118.	118.	120.	122.	125.	125.	128.	130.	123.	119.	122.	120.	121.	123.	129.	128.	125.	126.	130.	126.	135.	149.	142.	136.	133.	128.	123.	124.	122.	122.	119.	121.	120.	126.	121.	115.	119.	123.	119.	117.	113.	115.	116.	116.	114.	109.	112.	117.	123.	126.	124.	118.	120.	119.	118.	118.	116.	115.	119.	117.	123.	121.	117.	119.	122.	123.	124.	126.	130.	126.	123.	121.	122.	119.	117.	117.	117.	117.	114.	108.	112.	111.	112.	105.	103.	97.	94.	91.	83.	83.	86.	85.	83.	73.	74.	74.	74.	77.	81.	76.	77.	86.	86.	82.
102.	107.	106.	105.	103.	100.	98.	97.	96.	97.	103.	100.	98.	103.	102.	101.	100.	105.	119.	121.	118.	109.	111.	117.	127.	117.	117.	118.	110.	96.	108.	119.	123.	124.	127.	119.	117.	118.	120.	123.	119.	121.	123.	129.	127.	125.	124.	127.	124.	126.	131.	129.	127.	128.	133.	129.	140.	147.	139.	133.	127.	122.	123.	125.	123.	121.	121.	119.	124.	126.	122.	124.	121.	120.	116.	113.	117.	122.	122.	123.	121.	110.	110.	115.	116.	115.	118.	114.	117.	122.	123.	122.	116.	116.	118.	125.	125.	127.	118.	119.	127.	126.	126.	126.	129.	125.	121.	118.	119.	118.	119.	120.	118.	116.	110.	110.	112.	112.	107.	102.	99.	94.	96.	99.	84.	82.	89.	85.	77.	79.	79.	74.	73.	76.	76.	76.	76.	78.	84.	87.
100.	106.	116.	116.	112.	106.	104.	100.	98.	100.	103.	106.	100.	102.	99.	103.	101.	101.	116.	121.	119.	108.	117.	118.	127.	127.	118.	118.	109.	104.	120.	121.	122.	131.	127.	119.	117.	120.	121.	119.	116.	120.	122.	127.	128.	128.	131.	130.	119.	132.	131.	131.	131.	126.	132.	130.	135.	142.	138.	136.	134.	132.	129.	123.	120.	121.	119.	125.	132.	133.	124.	123.	123.	124.	117.	113.	115.	124.	127.	127.	123.	115.	117.	111.	112.	110.	109.	109.	119.	125.	124.	121.	115.	117.	119.	129.	129.	130.	126.	125.	124.	126.	129.	131.	127.	124.	123.	118.	116.	116.	119.	119.	118.	115.	110.	108.	111.	107.	101.	96.	99.	91.	95.	94.	91.	86.	88.	81.	77.	76.	77.	74.	74.	74.	79.	90.	79.	79.	84.	86.
98.	104.	114.	120.	120.	111.	105.	103.	101.	100.	98.	104.	101.	103.	99.	101.	100.	101.	116.	123.	121.	107.	120.	125.	124.	127.	117.	115.	110.	104.	120.	121.	125.	128.	119.	119.	119.	115.	114.	117.	121.	124.	124.	126.	129.	126.	128.	123.	118.	133.	136.	134.	129.	128.	129.	132.	136.	140.	138.	138.	134.	128.	132.	129.	125.	121.	121.	127.	131.	129.	124.	127.	128.	122.	118.	120.	124.	123.	128.	126.	122.	115.	117.	115.	116.	110.	109.	115.	122.	127.	125.	126.	124.	124.	124.	125.	127.	126.	123.	124.	122.	128.	129.	129.	128.	124.	123.	122.	117.	118.	115.	117.	118.	116.	111.	110.	109.	103.	99.	99.	97.	88.	92.	100.	92.	86.	86.	85.	81.	74.	76.	74.	76.	76.	78.	87.	84.	81.	80.	79.
105.	102.	110.	115.	121.	119.	114.	109.	105.	102.	95.	98.	97.	97.	103.	97.	98.	107.	116.	118.	118.	108.	116.	126.	129.	127.	116.	113.	105.	106.	115.	128.	131.	133.	121.	121.	124.	116.	120.	130.	133.	133.	131.	134.	129.	125.	122.	117.	114.	129.	135.	132.	128.	130.	130.	134.	140.	137.	136.	137.	133.	128.	130.	130.	121.	123.	121.	119.	127.	120.	118.	129.	129.	120.	116.	121.	118.	115.	120.	125.	121.	118.	115.	115.	117.	117.	118.	123.	124.	126.	128.	128.	131.	133.	130.	130.	127.	121.	120.	123.	122.	121.	121.	118.	120.	122.	121.	119.	116.	112.	112.	112.	118.	114.	113.	109.	110.	106.	103.	97.	90.	87.	97.	101.	92.	91.	92.	84.	83.	80.	81.	84.	91.	90.	75.	81.	88.	79.	78.	76.
110.	109.	103.	111.	119.	121.	116.	110.	108.	104.	95.	98.	97.	95.	100.	94.	98.	103.	114.	115.	113.	115.	121.	124.	130.	127.	119.	112.	97.	105.	116.	129.	135.	135.	127.	119.	120.	116.	124.	130.	133.	131.	130.	135.	133.	127.	117.	112.	112.	123.	131.	129.	128.	131.	131.	133.	139.	135.	136.	138.	136.	133.	131.	132.	121.	118.	118.	118.	119.	117.	116.	126.	129.	121.	114.	117.	116.	113.	116.	123.	122.	117.	115.	114.	115.	116.	114.	121.	122.	125.	130.	129.	133.	133.	130.	128.	126.	123.	122.	117.	121.	116.	116.	114.	112.	119.	116.	114.	111.	109.	110.	112.	117.	115.	113.	110.	112.	110.	102.	98.	89.	89.	103.	97.	91.	96.	93.	91.	90.	89.	84.	89.	89.	85.	76.	80.	87.	77.	79.	77.
112.	110.	96.	102.	112.	115.	113.	110.	108.	108.	103.	101.	100.	98.	100.	94.	96.	100.	113.	117.	115.	116.	118.	126.	127.	125.	116.	108.	99.	106.	128.	133.	133.	136.	137.	133.	127.	117.	118.	126.	130.	129.	133.	137.	132.	120.	114.	115.	122.	118.	123.	124.	127.	128.	127.	129.	134.	135.	135.	135.	131.	132.	135.	133.	129.	123.	117.	118.	121.	119.	117.	124.	126.	116.	114.	117.	115.	114.	116.	122.	123.	119.	116.	113.	114.	116.	120.	118.	118.	124.	128.	131.	132.	128.	130.	124.	123.	123.	124.	119.	115.	113.	117.	119.	117.	114.	113.	114.	113.	108.	111.	118.	116.	118.	113.	106.	111.	107.	101.	94.	102.	93.	95.	98.	92.	96.	95.	96.	95.	91.	89.	92.	85.	78.	79.	84.	84.	74.	76.	75.
113.	116.	109.	100.	107.	113.	112.	109.	108.	107.	107.	103.	93.	96.	92.	94.	92.	97.	109.	113.	113.	109.	110.	121.	126.	124.	115.	102.	95.	107.	130.	136.	136.	138.	136.	127.	119.	118.	119.	120.	127.	128.	131.	133.	124.	120.	118.	130.	130.	127.	118.	122.	121.	123.	125.	131.	134.	134.	136.	134.	129.	134.	135.	133.	131.	126.	119.	118.	124.	119.	118.	122.	118.	114.	114.	114.	114.	115.	118.	122.	122.	118.	120.	120.	121.	119.	116.	121.	124.	125.	124.	126.	125.	126.	127.	123.	119.	123.	120.	116.	109.	109.	113.	118.	114.	115.	114.	118.	115.	109.	117.	116.	114.	114.	114.	109.	107.	103.	100.	102.	104.	95.	101.	101.	97.	102.	100.	98.	96.	89.	89.	89.	85.	87.	91.	76.	77.	79.	78.	71.
113.	114.	114.	108.	103.	110.	114.	111.	107.	106.	103.	103.	93.	92.	88.	92.	89.	96.	106.	110.	110.	105.	113.	123.	125.	124.	115.	98.	91.	114.	134.	139.	138.	139.	133.	122.	118.	121.	121.	120.	124.	128.	131.	127.	127.	121.	127.	136.	127.	128.	122.	119.	120.	121.	126.	134.	135.	135.	136.	135.	131.	129.	134.	131.	127.	123.	120.	125.	118.	122.	121.	123.	119.	114.	114.	115.	115.	115.	118.	123.	121.	122.	124.	128.	131.	126.	123.	129.	126.	125.	122.	124.	121.	121.	123.	124.	116.	120.	117.	115.	108.	108.	108.	113.	112.	117.	119.	119.	119.	115.	118.	117.	121.	118.	112.	105.	102.	104.	101.	110.	109.	103.	107.	107.	103.	102.	104.	99.	97.	88.	90.	95.	96.	91.	94.	80.	76.	87.	75.	69.
104.	108.	108.	107.	113.	112.	113.	111.	102.	101.	98.	96.	95.	94.	88.	89.	87.	90.	100.	107.	103.	105.	109.	121.	124.	122.	112.	90.	87.	118.	136.	138.	136.	136.	125.	121.	120.	121.	123.	127.	131.	129.	130.	120.	124.	122.	133.	135.	132.	129.	127.	123.	122.	131.	131.	127.	135.	135.	135.	133.	132.	128.	130.	130.	130.	128.	129.	129.	122.	119.	119.	117.	116.	118.	114.	114.	114.	114.	115.	119.	122.	127.	133.	139.	136.	132.	130.	129.	130.	125.	123.	121.	121.	121.	122.	118.	113.	111.	114.	115.	108.	107.	107.	107.	115.	118.	116.	115.	116.	114.	114.	116.	118.	112.	106.	102.	106.	110.	110.	113.	114.	110.	110.	111.	110.	109.	109.	105.	102.	97.	99.	99.	97.	96.	94.	84.	76.	77.	68.	68.
109.	106.	107.	103.	109.	110.	106.	107.	100.	98.	96.	95.	93.	92.	85.	87.	90.	90.	98.	104.	103.	103.	103.	112.	116.	112.	97.	93.	97.	112.	133.	138.	136.	134.	122.	121.	121.	123.	125.	125.	127.	129.	133.	128.	123.	129.	135.	134.	131.	130.	129.	129.	132.	133.	133.	135.	133.	132.	135.	135.	137.	138.	138.	139.	137.	134.	131.	133.	127.	129.	123.	123.	121.	121.	114.	115.	115.	119.	117.	117.	126.	134.	138.	138.	133.	132.	130.	127.	123.	119.	118.	116.	121.	116.	113.	114.	110.	110.	111.	115.	112.	112.	108.	110.	117.	114.	116.	119.	117.	113.	112.	111.	111.	109.	110.	107.	107.	109.	111.	114.	113.	110.	110.	113.	105.	107.	110.	108.	101.	100.	101.	99.	97.	97.	92.	81.	74.	70.	67.	67.
109.	107.	104.	100.	107.	112.	108.	104.	98.	99.	101.	97.	95.	88.	87.	87.	91.	95.	97.	102.	100.	102.	102.	107.	105.	107.	93.	95.	102.	107.	127.	136.	136.	135.	129.	121.	123.	125.	126.	131.	128.	128.	131.	130.	127.	133.	135.	134.	130.	131.	129.	121.	131.	132.	131.	131.	131.	131.	134.	133.	133.	136.	137.	139.	138.	133.	132.	136.	134.	131.	126.	126.	121.	121.	116.	116.	116.	116.	119.	121.	127.	134.	136.	132.	128.	127.	125.	124.	118.	114.	116.	116.	119.	115.	110.	109.	110.	108.	108.	112.	111.	107.	110.	114.	111.	115.	113.	114.	111.	110.	110.	106.	104.	104.	104.	102.	104.	106.	114.	114.	112.	110.	102.	107.	104.	106.	109.	108.	101.	97.	101.	100.	95.	89.	86.	79.	73.	69.	68.	68.
106.	105.	107.	106.	107.	113.	115.	105.	101.	104.	96.	97.	102.	90.	87.	91.	88.	92.	98.	98.	100.	106.	101.	101.	105.	100.	87.	98.	105.	107.	115.	131.	134.	135.	137.	133.	127.	127.	128.	133.	130.	131.	130.	125.	133.	136.	133.	133.	130.	125.	121.	120.	133.	133.	131.	132.	129.	131.	130.	129.	129.	131.	133.	134.	135.	132.	131.	135.	132.	128.	125.	123.	120.	117.	114.	113.	114.	114.	114.	120.	125.	131.	129.	128.	126.	125.	125.	123.	117.	118.	119.	116.	121.	116.	116.	114.	110.	107.	105.	106.	107.	110.	112.	110.	109.	115.	111.	112.	108.	108.	111.	109.	105.	102.	105.	104.	100.	105.	115.	106.	109.	106.	97.	107.	109.	107.	105.	104.	102.	99.	94.	90.	87.	83.	78.	79.	78.	71.	65.	64.
105.	105.	106.	101.	106.	114.	115.	108.	100.	101.	95.	94.	95.	84.	84.	90.	83.	87.	90.	97.	97.	102.	100.	101.	102.	99.	91.	111.	121.	122.	111.	121.	132.	134.	138.	138.	136.	137.	138.	138.	133.	132.	122.	127.	136.	134.	132.	129.	128.	122.	122.	120.	132.	132.	132.	133.	129.	128.	128.	129.	130.	130.	127.	130.	133.	133.	130.	132.	133.	129.	126.	123.	118.	119.	116.	114.	115.	115.	114.	114.	118.	132.	133.	127.	122.	123.	124.	127.	126.	127.	125.	122.	118.	118.	117.	116.	109.	107.	106.	109.	107.	111.	114.	112.	110.	115.	111.	109.	108.	111.	113.	110.	110.	108.	109.	111.	104.	106.	109.	98.	110.	111.	104.	110.	107.	106.	103.	101.	102.	99.	93.	93.	87.	83.	78.	86.	85.	74.	63.	66.
107.	102.	98.	94.	93.	106.	112.	111.	99.	99.	93.	93.	87.	81.	83.	86.	80.	82.	93.	89.	93.	100.	99.	101.	91.	108.	113.	119.	119.	124.	121.	115.	121.	132.	134.	138.	136.	137.	139.	135.	130.	127.	121.	136.	136.	134.	131.	131.	134.	133.	117.	119.	133.	133.	130.	131.	128.	129.	128.	128.	125.	125.	124.	127.	131.	133.	129.	131.	128.	131.	126.	121.	117.	114.	114.	114.	115.	114.	114.	113.	115.	124.	129.	128.	129.	127.	128.	131.	129.	127.	127.	125.	121.	119.	119.	116.	111.	107.	106.	106.	106.	105.	106.	106.	105.	106.	106.	111.	112.	112.	115.	112.	108.	111.	110.	109.	105.	100.	104.	105.	112.	112.	110.	109.	106.	106.	102.	97.	97.	102.	94.	90.	90.	91.	94.	89.	87.	77.	67.	66.
92.	97.	100.	96.	98.	102.	104.	103.	97.	97.	92.	91.	93.	82.	80.	81.	93.	91.	92.	86.	94.	96.	97.	96.	102.	110.	117.	119.	118.	124.	129.	126.	123.	132.	134.	139.	136.	136.	137.	136.	130.	126.	138.	137.	135.	135.	133.	132.	130.	128.	117.	124.	134.	134.	129.	125.	126.	126.	128.	126.	128.	128.	124.	123.	124.	130.	131.	127.	128.	127.	125.	120.	114.	117.	117.	114.	112.	114.	115.	113.	116.	118.	119.	123.	129.	130.	130.	130.	124.	124.	128.	125.	121.	118.	118.	115.	115.	109.	109.	106.	107.	113.	106.	105.	104.	104.	105.	106.	108.	110.	114.	115.	114.	111.	109.	109.	104.	100.	103.	102.	108.	112.	107.	103.	107.	103.	97.	100.	98.	99.	96.	98.	97.	99.	91.	86.	81.	77.	69.	69.
88.	105.	110.	104.	102.	99.	96.	95.	93.	93.	88.	89.	87.	81.	80.	81.	93.	93.	93.	91.	94.	92.	98.	94.	103.	111.	118.	118.	119.	126.	134.	128.	130.	132.	131.	132.	129.	131.	136.	129.	124.	136.	137.	137.	135.	132.	130.	129.	126.	129.	119.	122.	132.	132.	129.	127.	128.	127.	127.	128.	131.	128.	124.	120.	120.	126.	128.	121.	127.	125.	124.	120.	114.	114.	115.	115.	114.	115.	118.	116.	116.	121.	120.	118.	126.	127.	127.	131.	129.	131.	131.	124.	124.	125.	121.	117.	113.	110.	110.	106.	104.	108.	105.	104.	103.	104.	104.	104.	104.	105.	114.	114.	114.	112.	108.	107.	103.	102.	103.	103.	109.	111.	108.	100.	106.	102.	99.	100.	98.	100.	95.	96.	98.	95.	88.	84.	83.	77.	68.	69.
88.	102.	104.	107.	97.	94.	95.	107.	100.	90.	85.	87.	82.	83.	84.	82.	84.	87.	90.	82.	87.	86.	86.	91.	97.	102.	105.	107.	110.	122.	131.	131.	127.	131.	129.	122.	125.	130.	133.	133.	137.	138.	137.	137.	134.	125.	124.	126.	130.	128.	123.	124.	129.	129.	127.	128.	129.	133.	131.	134.	131.	123.	124.	118.	118.	119.	123.	124.	124.	123.	119.	115.	116.	115.	116.	116.	113.	113.	114.	116.	115.	116.	119.	122.	122.	122.	123.	128.	128.	130.	133.	127.	123.	126.	124.	123.	118.	113.	112.	107.	105.	105.	105.	104.	102.	103.	102.	102.	103.	105.	109.	113.	112.	108.	105.	108.	107.	104.	104.	102.	111.	108.	104.	102.	97.	100.	100.	101.	97.	100.	96.	94.	94.	92.	86.	84.	82.	72.	68.	68.
87.	95.	103.	106.	98.	102.	102.	109.	102.	91.	85.	88.	83.	84.	83.	84.	82.	82.	85.	80.	83.	84.	83.	90.	94.	95.	102.	103.	106.	117.	124.	126.	128.	131.	132.	124.	120.	126.	129.	130.	136.	140.	137.	139.	134.	126.	127.	123.	127.	127.	124.	120.	124.	128.	125.	127.	132.	137.	135.	134.	132.	128.	133.	130.	129.	120.	120.	120.	122.	119.	116.	116.	118.	116.	115.	116.	118.	115.	115.	114.	113.	118.	120.	124.	123.	124.	126.	124.	125.	127.	129.	127.	124.	125.	125.	124.	120.	118.	113.	115.	107.	106.	103.	102.	103.	102.	103.	104.	104.	102.	107.	106.	107.	109.	106.	112.	115.	107.	109.	107.	108.	108.	107.	103.	100.	102.	100.	101.	99.	100.	96.	92.	90.	87.	86.	84.	80.	70.	68.	68.
92.	94.	100.	103.	101.	103.	106.	111.	105.	91.	91.	91.	84.	85.	86.	86.	82.	81.	83.	78.	79.	79.	80.	81.	84.	95.	103.	100.	105.	112.	116.	121.	125.	128.	127.	125.	121.	122.	130.	135.	134.	137.	136.	135.	131.	127.	124.	123.	123.	122.	120.	119.	128.	127.	126.	131.	135.	136.	136.	133.	133.	128.	132.	133.	132.	130.	128.	118.	116.	117.	117.	117.	115.	115.	116.	115.	114.	115.	115.	116.	114.	122.	120.	124.	125.	123.	127.	127.	127.	125.	127.	125.	129.	129.	125.	121.	120.	119.	114.	115.	109.	104.	105.	103.	104.	104.	106.	104.	104.	103.	105.	108.	108.	107.	107.	113.	114.	116.	112.	107.	103.	104.	106.	100.	101.	99.	100.	100.	99.	99.	93.	92.	90.	86.	85.	85.	83.	72.	71.	71.
99.	99.	99.	104.	104.	110.	111.	109.	102.	92.	87.	86.	82.	81.	87.	84.	82.	81.	84.	80.	79.	80.	83.	88.	92.	101.	106.	103.	102.	105.	113.	118.	130.	134.	134.	136.	127.	123.	136.	136.	133.	134.	129.	131.	133.	135.	128.	127.	129.	127.	121.	124.	127.	124.	124.	128.	132.	134.	133.	133.	132.	132.	130.	130.	129.	128.	126.	123.	119.	116.	116.	115.	116.	118.	115.	113.	113.	115.	116.	116.	117.	122.	126.	125.	122.	121.	127.	131.	128.	127.	126.	126.	130.	126.	123.	120.	120.	118.	113.	115.	108.	106.	108.	105.	104.	104.	104.	103.	104.	104.	104.	105.	106.	105.	105.	110.	113.	112.	112.	107.	107.	105.	104.	101.	101.	96.	101.	99.	98.	96.	93.	89.	89.	84.	86.	89.	90.	75.	76.	75.
109.	101.	99.	101.	105.	110.	107.	106.	99.	92.	84.	85.	82.	80.	85.	85.	82.	82.	83.	83.	82.	82.	91.	93.	97.	101.	107.	109.	108.	112.	117.	125.	128.	135.	137.	137.	132.	126.	138.	134.	135.	132.	128.	128.	129.	133.	133.	131.	126.	127.	120.	124.	129.	126.	124.	127.	131.	134.	132.	131.	130.	129.	129.	127.	126.	126.	127.	127.	123.	120.	116.	116.	116.	118.	121.	116.	116.	116.	115.	115.	115.	126.	124.	122.	121.	122.	124.	131.	130.	130.	127.	124.	130.	126.	123.	118.	119.	119.	113.	110.	107.	107.	107.	109.	108.	105.	104.	103.	103.	105.	103.	104.	104.	105.	107.	109.	111.	111.	113.	108.	105.	103.	102.	101.	98.	95.	102.	100.	98.	94.	92.	89.	85.	86.	86.	89.	91.	75.	76.	72.
112.	105.	100.	98.	104.	107.	104.	102.	99.	97.	80.	80.	78.	85.	87.	86.	85.	83.	84.	84.	83.	89.	94.	99.	97.	104.	108.	114.	116.	114.	122.	124.	125.	134.	134.	136.	129.	129.	141.	138.	134.	133.	133.	126.	128.	136.	130.	128.	124.	123.	121.	123.	125.	124.	125.	127.	128.	132.	132.	127.	128.	124.	124.	124.	123.	125.	129.	129.	131.	126.	128.	123.	116.	116.	115.	114.	117.	118.	116.	116.	124.	125.	122.	121.	121.	126.	128.	128.	129.	129.	129.	124.	124.	123.	121.	118.	117.	116.	114.	113.	112.	107.	108.	108.	107.	104.	103.	104.	104.	103.	103.	103.	104.	107.	106.	109.	112.	116.	113.	111.	105.	105.	101.	99.	98.	95.	97.	97.	93.	95.	91.	89.	87.	90.	89.	86.	88.	72.	78.	70.
108.	107.	94.	96.	100.	100.	99.	96.	97.	90.	78.	77.	80.	80.	85.	84.	83.	82.	86.	85.	84.	90.	100.	99.	103.	102.	110.	113.	115.	117.	121.	123.	128.	133.	131.	127.	135.	138.	138.	135.	133.	136.	136.	128.	134.	137.	128.	123.	123.	123.	121.	123.	124.	125.	122.	123.	125.	131.	129.	127.	129.	127.	125.	124.	127.	130.	131.	132.	128.	122.	128.	126.	121.	117.	116.	115.	117.	119.	120.	120.	125.	127.	123.	127.	125.	129.	131.	130.	128.	130.	127.	123.	122.	122.	124.	119.	120.	115.	114.	109.	110.	108.	107.	106.	105.	106.	107.	105.	109.	105.	103.	106.	106.	108.	112.	115.	117.	116.	112.	106.	103.	102.	100.	97.	96.	93.	93.	96.	97.	98.	92.	89.	90.	92.	87.	92.	93.	74.	72.	66.
104.	108.	96.	96.	96.	96.	95.	96.	94.	86.	77.	77.	77.	82.	83.	82.	82.	82.	88.	84.	87.	89.	96.	98.	103.	96.	107.	110.	111.	112.	113.	116.	130.	130.	125.	124.	136.	138.	134.	134.	130.	134.	136.	133.	133.	135.	127.	120.	121.	122.	120.	120.	122.	120.	120.	121.	121.	127.	127.	125.	131.	132.	128.	126.	128.	130.	130.	127.	124.	122.	122.	121.	118.	117.	116.	118.	116.	120.	121.	122.	128.	129.	130.	129.	131.	133.	132.	129.	127.	125.	127.	125.	123.	125.	125.	122.	120.	116.	114.	113.	111.	110.	108.	106.	106.	108.	115.	113.	111.	105.	104.	106.	106.	107.	112.	118.	117.	117.	113.	106.	103.	101.	99.	96.	95.	91.	90.	96.	96.	95.	91.	85.	88.	93.	88.	93.	95.	77.	76.	63.
98.	106.	100.	95.	94.	95.	96.	95.	87.	84.	77.	77.	77.	82.	78.	80.	84.	81.	83.	82.	83.	88.	101.	109.	96.	95.	99.	100.	98.	103.	106.	112.	116.	116.	117.	123.	135.	137.	137.	133.	126.	128.	132.	134.	132.	129.	127.	120.	120.	120.	120.	119.	121.	122.	121.	119.	121.	122.	123.	125.	131.	132.	133.	126.	125.	127.	129.	125.	125.	127.	122.	122.	119.	118.	121.	121.	121.	120.	121.	119.	123.	128.	132.	133.	137.	134.	130.	129.	127.	130.	124.	125.	127.	125.	124.	121.	120.	117.	117.	116.	116.	121.	114.	113.	112.	118.	120.	121.	119.	117.	108.	109.	111.	117.	114.	115.	109.	111.	108.	107.	103.	100.	98.	97.	95.	92.	89.	93.	94.	94.	91.	83.	84.	90.	88.	95.	93.	88.	77.	64.
89.	98.	95.	92.	92.	96.	95.	91.	85.	79.	77.	77.	77.	77.	77.	77.	84.	83.	83.	82.	82.	90.	106.	114.	107.	104.	105.	104.	103.	100.	105.	107.	108.	114.	114.	124.	134.	136.	135.	136.	133.	131.	130.	131.	128.	127.	128.	125.	120.	120.	120.	117.	119.	123.	119.	121.	125.	130.	121.	122.	128.	131.	133.	128.	125.	126.	126.	124.	125.	125.	123.	122.	118.	118.	121.	125.	126.	122.	128.	115.	123.	127.	132.	133.	134.	130.	128.	126.	133.	131.	124.	125.	129.	128.	126.	125.	122.	126.	120.	118.	124.	121.	113.	113.	113.	112.	118.	124.	118.	116.	115.	115.	117.	116.	116.	114.	108.	107.	104.	106.	105.	103.	100.	97.	96.	94.	91.	93.	92.	92.	89.	83.	85.	90.	87.	93.	92.	85.	76.	65.
85.	88.	95.	92.	92.	89.	88.	86.	83.	78.	77.	77.	77.	77.	77.	77.	77.	77.	81.	82.	85.	99.	108.	111.	111.	108.	107.	107.	110.	111.	109.	105.	106.	107.	114.	124.	134.	133.	131.	133.	135.	131.	130.	131.	127.	124.	128.	127.	124.	122.	122.	120.	120.	123.	122.	120.	121.	123.	122.	122.	127.	135.	133.	134.	131.	127.	127.	127.	131.	127.	123.	122.	119.	120.	122.	123.	123.	125.	126.	120.	124.	125.	126.	128.	130.	127.	124.	126.	129.	126.	123.	122.	130.	129.	125.	124.	130.	129.	127.	121.	123.	121.	117.	118.	116.	116.	120.	122.	120.	120.	119.	120.	118.	118.	114.	114.	108.	104.	104.	103.	102.	100.	98.	99.	96.	91.	92.	93.	92.	93.	84.	82.	83.	89.	86.	82.	78.	80.	68.	64.
85.	82.	84.	93.	100.	86.	77.	77.	77.	77.	77.	77.	79.	89.	88.	77.	77.	77.	77.	81.	84.	89.	99.	111.	113.	111.	108.	108.	111.	111.	110.	103.	103.	108.	123.	130.	132.	132.	132.	132.	132.	127.	125.	128.	124.	120.	121.	124.	129.	131.	121.	122.	119.	122.	128.	120.	121.	121.	127.	131.	136.	138.	138.	135.	134.	132.	132.	130.	126.	128.	124.	121.	120.	123.	122.	124.	125.	118.	117.	120.	127.	126.	125.	125.	126.	124.	121.	124.	126.	127.	124.	122.	124.	130.	131.	127.	131.	129.	125.	124.	128.	123.	123.	125.	122.	123.	126.	126.	124.	123.	119.	121.	122.	119.	117.	112.	107.	106.	105.	102.	104.	101.	95.	98.	98.	93.	91.	91.	94.	93.	84.	84.	84.	87.	81.	78.	75.	68.	66.	63.
84.	81.	81.	87.	94.	77.	77.	77.	77.	77.	77.	77.	85.	90.	88.	77.	77.	77.	78.	82.	82.	87.	91.	99.	110.	112.	104.	105.	109.	111.	111.	105.	98.	109.	125.	131.	133.	132.	131.	131.	129.	127.	122.	128.	119.	123.	121.	120.	123.	130.	121.	118.	115.	120.	130.	121.	122.	122.	123.	135.	139.	139.	139.	137.	132.	130.	131.	126.	127.	131.	125.	124.	122.	120.	120.	123.	121.	118.	118.	120.	125.	126.	124.	125.	123.	119.	118.	120.	125.	130.	127.	124.	124.	128.	131.	131.	130.	128.	126.	127.	125.	122.	124.	126.	124.	123.	125.	121.	126.	122.	119.	118.	119.	117.	118.	116.	110.	111.	108.	102.	106.	102.	94.	98.	96.	90.	94.	95.	93.	92.	85.	83.	83.	84.	82.	77.	70.	65.	65.	65.
81.	81.	80.	80.	83.	77.	77.	77.	77.	77.	77.	77.	96.	91.	79.	77.	77.	77.	79.	83.	82.	86.	92.	96.	110.	114.	111.	106.	107.	105.	104.	104.	101.	103.	120.	132.	130.	131.	131.	129.	124.	120.	119.	123.	120.	120.	123.	123.	127.	127.	123.	120.	126.	120.	126.	121.	123.	121.	123.	131.	136.	136.	133.	132.	133.	132.	135.	130.	132.	131.	128.	127.	121.	120.	121.	119.	118.	123.	120.	120.	124.	130.	128.	121.	122.	123.	121.	120.	119.	120.	121.	126.	124.	122.	129.	130.	133.	131.	128.	125.	122.	117.	118.	124.	121.	120.	122.	121.	125.	125.	121.	121.	118.	116.	117.	114.	112.	110.	106.	108.	109.	97.	94.	93.	92.	89.	89.	95.	94.	94.	85.	81.	83.	84.	82.	83.	74.	67.	66.	63.
81.	82.	79.	81.	78.	77.	77.	77.	77.	77.	77.	85.	88.	90.	78.	77.	77.	77.	77.	81.	84.	85.	93.	100.	112.	112.	111.	105.	110.	108.	102.	100.	103.	103.	112.	129.	129.	128.	129.	130.	122.	116.	117.	121.	120.	119.	120.	122.	125.	131.	131.	127.	134.	135.	130.	127.	123.	122.	125.	130.	134.	132.	134.	130.	135.	135.	134.	133.	133.	130.	129.	124.	120.	120.	121.	119.	121.	123.	122.	122.	127.	130.	128.	123.	124.	126.	127.	128.	124.	118.	119.	123.	126.	122.	126.	129.	132.	131.	126.	125.	124.	120.	117.	118.	121.	119.	119.	120.	124.	124.	122.	120.	115.	115.	114.	114.	111.	111.	108.	112.	108.	96.	97.	93.	92.	89.	87.	97.	94.	94.	87.	80.	81.	81.	78.	81.	72.	69.	66.	62.
83.	82.	85.	87.	77.	77.	77.	77.	77.	77.	77.	77.	77.	86.	77.	77.	77.	77.	77.	82.	82.	85.	93.	105.	109.	110.	111.	108.	109.	108.	105.	105.	105.	102.	106.	122.	130.	128.	130.	131.	126.	112.	116.	119.	117.	120.	120.	123.	135.	137.	133.	127.	138.	135.	133.	132.	129.	122.	126.	127.	131.	130.	134.	137.	133.	135.	138.	136.	131.	128.	124.	125.	121.	122.	120.	121.	127.	127.	128.	126.	128.	124.	123.	123.	129.	130.	135.	132.	129.	129.	122.	121.	123.	116.	119.	124.	129.	128.	125.	123.	126.	131.	127.	126.	125.	119.	118.	120.	120.	122.	123.	120.	115.	109.	118.	114.	108.	105.	107.	107.	111.	109.	101.	95.	93.	91.	87.	98.	97.	93.	86.	81.	81.	88.	81.	80.	81.	70.	69.	71.
87.	86.	87.	77.	77.	77.	77.	77.	77.	77.	77.	77.	77.	77.	77.	77.	77.	77.	79.	82.	81.	84.	85.	96.	106.	108.	111.	109.	107.	103.	108.	105.	102.	103.	108.	110.	111.	112.	126.	129.	122.	114.	114.	117.	119.	134.	124.	122.	129.	136.	132.	129.	138.	135.	132.	131.	126.	127.	128.	126.	130.	134.	134.	128.	128.	131.	132.	127.	127.	130.	125.	122.	120.	120.	126.	126.	127.	123.	123.	127.	126.	121.	122.	123.	125.	129.	134.	133.	129.	128.	124.	122.	126.	121.	118.	121.	125.	125.	122.	124.	130.	128.	125.	125.	121.	120.	124.	121.	119.	121.	123.	124.	120.	114.	112.	109.	110.	112.	111.	115.	110.	109.	104.	102.	92.	98.	99.	100.	96.	93.	87.	81.	81.	82.	78.	83.	81.	82.	74.	70.
86.	84.	77.	77.	77.	77.	77.	77.	77.	77.	77.	77.	77.	77.	77.	77.	77.	77.	94.	93.	89.	84.	88.	97.	105.	109.	110.	111.	111.	102.	113.	110.	107.	106.	109.	110.	110.	110.	120.	127.	116.	115.	116.	122.	125.	134.	136.	122.	128.	136.	133.	132.	137.	137.	133.	127.	124.	123.	126.	126.	132.	134.	129.	126.	129.	128.	132.	127.	131.	131.	125.	120.	120.	120.	125.	127.	124.	121.	122.	123.	120.	120.	123.	125.	125.	126.	133.	133.	127.	127.	125.	121.	122.	122.	120.	119.	122.	121.	120.	124.	126.	128.	124.	126.	124.	121.	121.	120.	117.	118.	122.	123.	123.	121.	112.	108.	112.	115.	117.	117.	114.	111.	107.	105.	96.	100.	101.	98.	95.	94.	88.	81.	81.	79.	79.	81.	78.	79.	71.	72.
80.	78.	77.	77.	77.	77.	77.	77.	77.	87.	77.	77.	77.	77.	77.	77.	77.	77.	84.	90.	88.	88.	93.	96.	108.	113.	114.	111.	111.	107.	118.	123.	121.	121.	112.	115.	111.	110.	113.	127.	117.	121.	128.	130.	131.	134.	132.	122.	132.	135.	134.	133.	133.	131.	124.	119.	121.	123.	122.	125.	131.	133.	129.	129.	132.	134.	132.	131.	129.	126.	126.	124.	120.	122.	126.	125.	122.	125.	121.	123.	121.	124.	120.	123.	127.	130.	130.	127.	127.	127.	123.	117.	117.	117.	126.	124.	122.	118.	118.	120.	126.	125.	121.	123.	122.	119.	119.	118.	119.	118.	122.	123.	119.	119.	115.	111.	112.	111.	114.	119.	112.	112.	108.	108.	99.	96.	94.	95.	94.	92.	87.	82.	81.	78.	75.	75.	75.	72.	69.	67.
86.	86.	85.	77.	77.	77.	77.	77.	81.	90.	85.	82.	80.	77.	77.	77.	77.	77.	77.	80.	84.	86.	88.	101.	109.	108.	105.	103.	111.	114.	116.	123.	121.	120.	115.	115.	114.	110.	109.	120.	123.	115.	127.	130.	131.	131.	132.	124.	123.	132.	137.	135.	128.	124.	118.	118.	121.	121.	121.	126.	132.	133.	129.	129.	129.	130.	126.	129.	128.	124.	122.	121.	120.	122.	129.	126.	123.	123.	119.	120.	122.	119.	124.	124.	129.	131.	127.	125.	126.	125.	124.	117.	121.	120.	117.	119.	126.	121.	119.	122.	125.	120.	120.	125.	122.	116.	113.	118.	117.	119.	123.	116.	116.	121.	118.	111.	108.	110.	113.	115.	113.	110.	111.	110.	103.	96.	96.	95.	95.	92.	88.	82.	79.	78.	78.	75.	74.	75.	72.	69.
85.	87.	78.	77.	77.	77.	77.	77.	80.	81.	88.	82.	83.	78.	77.	77.	77.	77.	77.	78.	88.	95.	91.	98.	105.	101.	103.	104.	108.	110.	114.	118.	118.	119.	115.	115.	114.	112.	112.	114.	124.	112.	122.	128.	128.	124.	131.	132.	123.	124.	135.	133.	127.	119.	116.	120.	126.	122.	127.	132.	133.	130.	130.	132.	128.	125.	125.	126.	127.	123.	122.	119.	120.	120.	128.	125.	124.	125.	120.	118.	121.	124.	123.	124.	130.	125.	126.	126.	126.	127.	127.	123.	125.	121.	122.	122.	127.	124.	117.	116.	122.	120.	121.	124.	119.	114.	113.	121.	121.	121.	123.	119.	120.	121.	119.	118.	113.	110.	111.	113.	114.	109.	111.	111.	106.	95.	98.	97.	94.	90.	90.	81.	81.	81.	77.	75.	72.	75.	69.	67.
86.	83.	77.	77.	77.	77.	77.	77.	77.	77.	79.	85.	83.	81.	77.	77.	77.	77.	77.	77.	91.	97.	104.	99.	99.	97.	107.	108.	106.	110.	117.	112.	112.	114.	114.	113.	111.	111.	114.	118.	124.	115.	119.	123.	119.	120.	129.	131.	131.	123.	128.	131.	128.	120.	122.	126.	127.	122.	127.	128.	128.	127.	130.	131.	127.	125.	123.	124.	124.	124.	121.	120.	120.	124.	126.	125.	122.	123.	123.	120.	121.	127.	128.	120.	122.	126.	124.	123.	125.	128.	130.	123.	126.	126.	123.	121.	120.	120.	118.	121.	120.	117.	116.	115.	112.	113.	111.	116.	117.	118.	121.	119.	121.	121.	125.	122.	122.	116.	112.	115.	116.	110.	113.	111.	108.	99.	99.	98.	97.	97.	93.	86.	85.	86.	77.	73.	72.	69.	69.	71.
82.	77.	77.	77.	77.	77.	77.	77.	77.	77.	77.	80.	83.	82.	81.	77.	77.	77.	77.	86.	94.	100.	104.	102.	98.	101.	107.	106.	107.	112.	117.	110.	109.	110.	111.	110.	114.	113.	117.	124.	125.	119.	115.	118.	115.	115.	130.	128.	127.	127.	127.	127.	129.	127.	125.	124.	129.	123.	124.	125.	126.	128.	130.	130.	127.	124.	123.	123.	121.	124.	122.	121.	119.	125.	124.	124.	121.	121.	120.	120.	124.	124.	123.	118.	118.	125.	124.	122.	127.	129.	127.	120.	121.	124.	123.	120.	117.	119.	118.	124.	124.	115.	115.	115.	109.	105.	111.	115.	116.	118.	118.	117.	121.	121.	121.	123.	123.	119.	118.	113.	111.	110.	112.	111.	107.	99.	95.	97.	100.	100.	96.	89.	89.	90.	74.	71.	70.	70.	69.	72.
81.	77.	77.	77.	77.	77.	77.	77.	77.	77.	77.	78.	80.	80.	80.	77.	77.	77.	77.	79.	93.	101.	100.	101.	99.	105.	106.	103.	107.	110.	111.	111.	102.	99.	108.	111.	115.	119.	120.	121.	122.	118.	112.	109.	110.	116.	130.	125.	123.	127.	129.	128.	123.	121.	122.	125.	128.	124.	121.	126.	128.	129.	129.	128.	123.	122.	122.	120.	118.	121.	120.	120.	119.	120.	117.	121.	125.	116.	117.	120.	118.	125.	123.	118.	120.	123.	124.	128.	130.	124.	119.	116.	118.	123.	124.	123.	125.	120.	118.	122.	124.	122.	112.	105.	105.	105.	105.	108.	117.	118.	116.	113.	118.	121.	119.	123.	122.	120.	119.	118.	118.	114.	112.	111.	102.	96.	95.	98.	101.	99.	98.	92.	89.	88.	72.	70.	73.	73.	71.	69.
81.	77.	77.	77.	77.	77.	77.	77.	77.	77.	77.	82.	83.	80.	82.	80.	77.	77.	77.	77.	83.	86.	96.	100.	103.	107.	104.	105.	106.	108.	105.	110.	107.	99.	105.	108.	111.	115.	115.	118.	119.	113.	111.	108.	110.	113.	120.	120.	121.	121.	125.	127.	123.	120.	119.	129.	127.	128.	126.	125.	127.	127.	127.	126.	122.	123.	125.	124.	121.	123.	121.	122.	123.	122.	124.	121.	123.	122.	116.	124.	125.	121.	118.	118.	121.	122.	123.	126.	130.	128.	122.	118.	121.	122.	124.	126.	120.	117.	117.	117.	120.	124.	117.	105.	105.	105.	105.	105.	113.	118.	118.	114.	114.	115.	116.	116.	114.	114.	116.	121.	116.	113.	110.	109.	100.	94.	99.	105.	103.	101.	92.	90.	85.	76.	73.	75.	78.	73.	74.	71.
77.	77.	77.	77.	77.	77.	77.	77.	77.	77.	77.	88.	84.	79.	79.	81.	77.	77.	77.	77.	77.	80.	91.	106.	107.	111.	107.	105.	104.	108.	107.	110.	111.	104.	110.	107.	107.	113.	110.	119.	117.	112.	113.	110.	111.	113.	115.	117.	119.	119.	120.	123.	119.	120.	117.	123.	128.	126.	123.	126.	126.	126.	123.	123.	121.	118.	120.	119.	119.	121.	124.	124.	124.	128.	127.	129.	127.	115.	116.	125.	125.	120.	119.	119.	121.	121.	123.	126.	128.	129.	130.	125.	127.	126.	124.	124.	120.	122.	122.	121.	121.	121.	118.	105.	105.	105.	105.	105.	109.	115.	116.	117.	115.	118.	121.	113.	113.	113.	116.	116.	114.	114.	110.	109.	101.	97.	106.	104.	105.	99.	90.	90.	77.	74.	71.	77.	77.	74.	76.	73.
77.	77.	77.	77.	77.	77.	77.	77.	77.	77.	79.	85.	89.	80.	80.	85.	85.	77.	77.	77.	77.	77.	82.	90.	100.	108.	108.	112.	115.	107.	108.	109.	112.	106.	107.	104.	106.	111.	106.	102.	109.	113.	108.	110.	110.	114.	114.	117.	114.	120.	123.	123.	123.	121.	126.	120.	124.	129.	120.	122.	122.	124.	121.	118.	120.	124.	125.	125.	122.	118.	120.	122.	122.	126.	125.	127.	127.	119.	114.	117.	115.	117.	117.	119.	119.	122.	128.	128.	128.	129.	130.	125.	121.	120.	122.	121.	126.	127.	128.	125.	121.	115.	109.	105.	105.	105.	105.	105.	106.	112.	115.	118.	120.	116.	120.	114.	113.	115.	114.	113.	115.	113.	111.	110.	105.	113.	111.	106.	107.	93.	89.	85.	79.	74.	73.	73.	76.	73.	72.	72.
82.	86.	77.	77.	77.	77.	77.	77.	77.	77.	81.	88.	88.	83.	85.	92.	86.	77.	77.	77.	77.	77.	77.	81.	93.	103.	105.	108.	113.	112.	106.	108.	112.	110.	103.	105.	106.	107.	108.	100.	105.	110.	110.	111.	115.	115.	121.	123.	122.	125.	123.	122.	123.	122.	128.	125.	126.	126.	121.	119.	119.	120.	118.	116.	119.	128.	126.	123.	120.	119.	120.	120.	119.	122.	123.	125.	124.	122.	118.	112.	113.	117.	118.	120.	126.	125.	126.	129.	127.	126.	129.	123.	120.	122.	128.	129.	128.	127.	127.	125.	122.	117.	110.	105.	105.	105.	105.	105.	105.	107.	115.	117.	116.	115.	117.	115.	112.	117.	115.	114.	116.	114.	112.	111.	110.	112.	107.	105.	102.	93.	89.	85.	80.	74.	72.	73.	73.	73.	72.	71.
87.	88.	77.	77.	77.	77.	77.	77.	77.	77.	86.	91.	88.	87.	86.	91.	90.	79.	77.	77.	77.	77.	77.	77.	80.	84.	94.	101.	106.	111.	110.	109.	112.	108.	102.	105.	103.	102.	97.	99.	105.	107.	110.	112.	114.	115.	119.	119.	121.	125.	127.	127.	127.	132.	132.	132.	130.	124.	121.	118.	124.	124.	116.	119.	122.	125.	124.	120.	124.	122.	123.	122.	121.	121.	126.	125.	124.	120.	119.	111.	111.	118.	121.	130.	125.	122.	130.	121.	123.	127.	126.	123.	121.	128.	125.	127.	128.	124.	121.	119.	118.	115.	113.	109.	113.	107.	105.	105.	105.	105.	108.	117.	119.	119.	118.	119.	118.	117.	115.	117.	115.	114.	117.	117.	109.	107.	105.	105.	99.	89.	86.	84.	81.	73.	72.	74.	76.	72.	71.	70.
97.	89.	77.	77.	77.	77.	77.	77.	77.	77.	85.	84.	84.	87.	84.	95.	98.	81.	77.	77.	80.	77.	77.	77.	83.	82.	99.	102.	100.	103.	107.	103.	103.	106.	105.	99.	101.	101.	96.	100.	102.	106.	110.	115.	111.	113.	116.	114.	118.	122.	122.	130.	134.	136.	134.	129.	126.	127.	120.	117.	116.	117.	116.	122.	124.	124.	123.	119.	128.	125.	126.	123.	120.	122.	118.	117.	123.	120.	121.	113.	113.	117.	123.	123.	125.	124.	125.	123.	123.	126.	125.	127.	125.	128.	126.	126.	124.	120.	117.	116.	116.	114.	115.	112.	112.	112.	108.	105.	105.	105.	105.	114.	120.	119.	120.	123.	123.	116.	111.	112.	112.	119.	121.	118.	111.	105.	105.	109.	103.	96.	87.	86.	92.	79.	72.	71.	72.	73.	71.	69.
96.	89.	77.	77.	77.	77.	77.	77.	77.	77.	89.	85.	84.	85.	90.	101.	99.	88.	82.	84.	84.	85.	77.	77.	80.	81.	100.	101.	102.	101.	104.	99.	99.	101.	102.	99.	101.	100.	98.	104.	111.	106.	111.	116.	111.	113.	118.	121.	118.	120.	123.	131.	136.	130.	129.	125.	123.	122.	120.	116.	118.	117.	116.	121.	126.	123.	119.	121.	127.	127.	122.	120.	119.	116.	113.	117.	124.	122.	120.	112.	112.	118.	120.	122.	125.	123.	123.	120.	121.	122.	126.	128.	125.	126.	124.	125.	120.	117.	114.	117.	116.	114.	115.	113.	110.	108.	112.	111.	105.	110.	109.	110.	116.	117.	121.	120.	119.	116.	117.	118.	122.	122.	121.	119.	112.	105.	104.	110.	106.	100.	89.	91.	94.	83.	70.	70.	73.	72.	69.	68.
101.	98.	77.	77.	77.	77.	77.	77.	77.	77.	87.	86.	84.	84.	95.	100.	94.	91.	83.	79.	81.	83.	77.	77.	77.	85.	92.	97.	98.	105.	103.	100.	98.	98.	98.	102.	106.	106.	102.	108.	112.	107.	110.	113.	113.	114.	111.	118.	126.	127.	128.	132.	133.	128.	125.	124.	119.	118.	117.	116.	118.	117.	117.	115.	125.	122.	119.	121.	124.	122.	113.	108.	109.	111.	116.	123.	125.	123.	112.	108.	109.	114.	114.	117.	123.	122.	120.	121.	120.	121.	124.	126.	125.	126.	125.	128.	129.	128.	122.	115.	112.	113.	113.	111.	110.	111.	109.	108.	107.	105.	106.	105.	110.	117.	119.	118.	117.	118.	121.	120.	121.	116.	112.	116.	114.	107.	103.	107.	104.	99.	93.	91.	85.	81.	70.	69.	71.	71.	69.	84.
103.	94.	81.	77.	77.	77.	77.	77.	77.	77.	78.	84.	87.	87.	91.	98.	95.	82.	83.	84.	89.	85.	80.	77.	77.	78.	83.	94.	98.	103.	102.	100.	101.	98.	97.	100.	102.	105.	109.	108.	105.	104.	107.	109.	111.	108.	111.	123.	128.	127.	133.	128.	126.	125.	120.	119.	125.	122.	123.	119.	118.	115.	116.	116.	122.	120.	117.	122.	119.	116.	118.	112.	110.	111.	111.	122.	124.	125.	115.	108.	108.	114.	115.	115.	118.	120.	121.	122.	123.	125.	126.	132.	130.	127.	127.	130.	129.	124.	119.	115.	115.	118.	115.	113.	116.	113.	109.	109.	113.	106.	105.	107.	112.	117.	114.	116.	117.	115.	113.	115.	114.	112.	112.	114.	112.	102.	101.	101.	99.	99.	91.	84.	84.	76.	71.	70.	70.	70.	71.	85.
105.	94.	86.	77.	77.	77.	77.	77.	77.	77.	77.	77.	87.	90.	89.	89.	92.	81.	88.	88.	88.	83.	85.	77.	77.	77.	80.	87.	95.	102.	102.	104.	105.	100.	97.	100.	104.	101.	107.	108.	107.	103.	104.	108.	111.	110.	114.	117.	125.	122.	125.	126.	124.	119.	121.	123.	132.	126.	121.	125.	120.	120.	119.	118.	121.	118.	115.	118.	116.	114.	113.	109.	110.	109.	115.	125.	121.	122.	115.	110.	108.	110.	114.	116.	118.	120.	122.	126.	128.	129.	131.	130.	127.	124.	124.	127.	129.	123.	116.	123.	121.	119.	116.	112.	112.	110.	109.	109.	111.	108.	108.	110.	113.	116.	115.	116.	115.	114.	110.	110.	109.	113.	115.	113.	110.	106.	104.	103.	99.	98.	91.	85.	82.	74.	71.	70.	70.	71.	80.	79.
102.	95.	90.	77.	77.	77.	77.	77.	77.	77.	77.	77.	77.	92.	83.	80.	80.	82.	81.	81.	84.	84.	82.	91.	77.	77.	81.	82.	91.	99.	98.	99.	99.	99.	98.	100.	100.	100.	102.	104.	108.	104.	103.	105.	112.	113.	114.	113.	118.	120.	121.	121.	121.	125.	128.	132.	129.	126.	125.	128.	123.	117.	118.	117.	115.	114.	114.	115.	116.	110.	109.	116.	108.	117.	114.	115.	108.	110.	107.	109.	114.	113.	116.	116.	119.	122.	121.	123.	130.	129.	133.	130.	128.	124.	124.	128.	124.	119.	117.	121.	118.	118.	116.	108.	108.	109.	108.	110.	109.	110.	110.	112.	111.	112.	113.	116.	115.	111.	110.	109.	106.	108.	112.	114.	109.	108.	107.	101.	99.	96.	91.	89.	83.	77.	71.	70.	80.	80.	77.	69.
101.	95.	91.	83.	77.	77.	77.	77.	77.	77.	77.	77.	77.	87.	80.	79.	79.	82.	79.	79.	82.	85.	82.	92.	77.	77.	81.	80.	84.	95.	93.	92.	90.	93.	98.	99.	99.	101.	100.	102.	105.	104.	108.	109.	112.	111.	112.	110.	115.	119.	119.	120.	124.	126.	132.	131.	131.	123.	125.	128.	123.	116.	115.	115.	114.	112.	114.	115.	116.	114.	110.	111.	109.	115.	111.	107.	108.	107.	106.	108.	114.	113.	115.	115.	117.	122.	119.	121.	127.	126.	128.	127.	127.	124.	122.	121.	120.	118.	119.	114.	117.	121.	118.	110.	109.	109.	110.	110.	110.	113.	113.	115.	114.	113.	112.	112.	115.	114.	112.	111.	106.	106.	110.	110.	109.	106.	104.	99.	98.	94.	88.	90.	89.	85.	77.	77.	84.	80.	77.	69.
101.	98.	89.	86.	77.	77.	77.	77.	77.	77.	84.	84.	84.	79.	78.	78.	87.	88.	94.	81.	81.	82.	84.	90.	77.	77.	78.	77.	78.	85.	88.	95.	92.	95.	98.	101.	103.	100.	98.	100.	100.	99.	103.	105.	105.	108.	105.	108.	115.	118.	119.	123.	124.	121.	122.	127.	127.	120.	118.	120.	116.	114.	115.	114.	113.	112.	115.	115.	119.	118.	117.	119.	108.	109.	111.	105.	107.	110.	114.	111.	110.	110.	110.	111.	114.	121.	119.	117.	119.	119.	118.	118.	121.	122.	120.	117.	125.	122.	114.	110.	113.	120.	112.	108.	109.	113.	115.	112.	110.	113.	114.	113.	110.	111.	114.	113.	114.	115.	113.	111.	111.	110.	111.	110.	107.	104.	100.	99.	96.	93.	88.	88.	95.	96.	92.	93.	88.	82.	80.	70.
96.	96.	85.	80.	77.	77.	77.	81.	97.	100.	92.	88.	91.	80.	80.	82.	87.	86.	92.	83.	80.	85.	92.	94.	86.	77.	77.	77.	77.	84.	88.	89.	88.	95.	91.	95.	93.	93.	96.	95.	94.	93.	97.	101.	104.	104.	105.	108.	113.	117.	120.	120.	121.	119.	119.	119.	120.	122.	124.	119.	117.	114.	114.	113.	113.	113.	114.	122.	120.	117.	114.	123.	110.	109.	108.	109.	110.	114.	114.	110.	108.	105.	108.	110.	112.	118.	123.	126.	122.	123.	123.	120.	119.	118.	119.	118.	122.	123.	119.	112.	112.	108.	107.	108.	109.	115.	116.	113.	113.	110.	112.	112.	109.	112.	113.	113.	112.	111.	111.	109.	105.	106.	106.	106.	106.	102.	100.	97.	96.	92.	90.	89.	99.	97.	94.	96.	92.	91.	82.	73.
90.	92.	81.	79.	77.	77.	77.	87.	96.	97.	93.	93.	93.	79.	79.	83.	90.	90.	85.	83.	79.	81.	87.	89.	92.	79.	77.	79.	80.	81.	87.	85.	86.	88.	95.	106.	98.	94.	96.	95.	95.	94.	101.	101.	103.	104.	103.	107.	113.	114.	118.	119.	119.	118.	117.	119.	123.	125.	127.	121.	119.	115.	114.	112.	110.	112.	119.	122.	120.	114.	116.	120.	110.	109.	107.	111.	114.	117.	116.	113.	112.	107.	109.	109.	112.	117.	122.	125.	124.	127.	129.	130.	129.	124.	120.	118.	116.	119.	118.	112.	109.	108.	108.	106.	109.	111.	113.	110.	110.	113.	112.	111.	109.	109.	113.	114.	111.	111.	111.	109.	106.	106.	107.	106.	114.	112.	101.	98.	99.	93.	94.	92.	100.	98.	93.	97.	93.	95.	81.	73.
94.	88.	82.	87.	77.	77.	77.	79.	85.	92.	92.	93.	84.	79.	79.	85.	92.	91.	93.	86.	84.	80.	81.	84.	88.	85.	80.	80.	83.	80.	82.	86.	85.	84.	101.	107.	97.	96.	96.	97.	95.	97.	102.	105.	105.	103.	104.	108.	113.	116.	117.	121.	123.	115.	115.	122.	122.	120.	121.	118.	119.	116.	114.	114.	114.	117.	120.	122.	119.	114.	111.	117.	111.	111.	109.	111.	112.	113.	114.	115.	113.	111.	108.	108.	109.	111.	121.	125.	126.	124.	129.	132.	128.	125.	127.	124.	119.	115.	114.	109.	107.	107.	107.	107.	111.	112.	111.	107.	107.	109.	107.	110.	117.	114.	115.	116.	111.	109.	113.	110.	112.	107.	106.	110.	116.	114.	112.	104.	98.	97.	101.	95.	101.	99.	93.	97.	95.	93.	85.	81.
96.	89.	91.	96.	85.	77.	77.	81.	89.	91.	90.	84.	80.	80.	81.	88.	91.	93.	94.	92.	93.	80.	80.	84.	85.	92.	80.	78.	78.	80.	80.	84.	83.	85.	97.	102.	100.	96.	96.	96.	93.	96.	101.	105.	104.	103.	104.	111.	110.	112.	114.	114.	118.	113.	115.	121.	122.	120.	118.	117.	116.	115.	115.	116.	113.	112.	114.	115.	120.	117.	110.	113.	110.	114.	111.	113.	110.	110.	113.	114.	112.	108.	105.	115.	118.	117.	119.	119.	121.	118.	126.	129.	128.	125.	124.	118.	113.	114.	113.	107.	107.	107.	107.	108.	109.	110.	108.	108.	108.	110.	108.	110.	117.	116.	111.	118.	114.	115.	115.	108.	109.	108.	108.	112.	113.	112.	110.	104.	98.	95.	101.	95.	97.	98.	91.	95.	90.	83.	83.	81.
100.	104.	95.	93.	93.	82.	82.	79.	85.	90.	85.	82.	90.	88.	91.	95.	89.	94.	91.	91.	93.	85.	83.	85.	87.	91.	87.	80.	86.	85.	81.	84.	84.	85.	94.	98.	103.	101.	101.	100.	95.	98.	103.	102.	103.	106.	113.	112.	107.	108.	113.	112.	114.	117.	116.	117.	119.	123.	121.	118.	119.	120.	118.	119.	119.	111.	114.	112.	113.	117.	116.	112.	115.	111.	110.	109.	109.	118.	117.	110.	110.	104.	105.	110.	118.	118.	117.	119.	121.	119.	118.	126.	125.	122.	119.	112.	107.	108.	109.	106.	106.	107.	106.	107.	110.	106.	106.	113.	121.	113.	109.	119.	121.	122.	118.	121.	115.	115.	117.	113.	110.	108.	113.	109.	106.	104.	102.	98.	97.	98.	97.	96.	92.	95.	90.	91.	86.	79.	78.	75.
101.	101.	100.	91.	90.	89.	94.	83.	85.	88.	86.	93.	101.	99.	103.	106.	101.	91.	89.	88.	89.	88.	84.	86.	87.	86.	94.	88.	86.	84.	81.	79.	81.	92.	97.	94.	97.	102.	100.	95.	90.	96.	101.	98.	99.	101.	111.	106.	98.	101.	109.	109.	112.	111.	118.	122.	122.	124.	128.	128.	120.	121.	126.	126.	123.	113.	113.	111.	113.	124.	126.	123.	124.	117.	110.	105.	105.	118.	116.	112.	107.	104.	102.	105.	112.	115.	117.	118.	121.	121.	116.	116.	117.	117.	113.	112.	108.	108.	107.	106.	105.	105.	106.	107.	105.	105.	113.	121.	123.	118.	117.	123.	121.	120.	116.	122.	121.	116.	121.	113.	113.	113.	112.	114.	114.	104.	100.	98.	97.	97.	96.	94.	90.	88.	83.	90.	90.	85.	78.	70.
102.	103.	100.	95.	93.	98.	96.	89.	84.	85.	92.	96.	96.	101.	110.	109.	107.	93.	90.	91.	91.	92.	89.	85.	87.	86.	92.	94.	87.	84.	80.	78.	81.	93.	92.	97.	92.	93.	92.	90.	87.	104.	99.	101.	100.	99.	105.	104.	96.	101.	108.	108.	108.	110.	114.	121.	118.	116.	125.	125.	124.	125.	128.	126.	121.	114.	114.	111.	114.	127.	126.	123.	124.	120.	108.	105.	107.	117.	114.	109.	106.	104.	102.	104.	109.	112.	118.	118.	119.	119.	113.	113.	114.	113.	113.	112.	107.	107.	107.	107.	106.	107.	106.	107.	108.	114.	118.	121.	122.	114.	118.	123.	120.	118.	118.	122.	120.	114.	113.	110.	112.	115.	116.	114.	113.	105.	103.	98.	99.	99.	99.	94.	90.	86.	82.	88.	87.	84.	78.	72.
104.	100.	97.	93.	97.	96.	97.	87.	85.	87.	104.	109.	103.	103.	111.	111.	108.	109.	94.	93.	97.	96.	94.	88.	84.	83.	85.	93.	91.	82.	79.	79.	86.	93.	94.	91.	87.	85.	87.	87.	84.	94.	95.	98.	101.	98.	102.	101.	99.	97.	106.	108.	118.	110.	114.	113.	111.	112.	113.	118.	120.	123.	124.	124.	119.	114.	110.	115.	122.	128.	125.	122.	122.	121.	116.	116.	110.	110.	107.	109.	109.	104.	103.	108.	116.	117.	119.	116.	120.	120.	119.	117.	114.	111.	109.	110.	110.	109.	111.	106.	107.	107.	106.	105.	107.	115.	119.	116.	123.	113.	113.	116.	119.	117.	120.	120.	120.	117.	107.	108.	117.	118.	118.	114.	106.	109.	104.	99.	98.	97.	97.	92.	88.	83.	82.	86.	84.	80.	75.	71.
104.	100.	101.	95.	97.	104.	95.	94.	89.	88.	101.	109.	104.	103.	108.	107.	104.	111.	107.	97.	98.	101.	98.	88.	86.	83.	84.	86.	94.	83.	86.	80.	89.	92.	90.	86.	83.	84.	84.	85.	82.	86.	92.	92.	96.	99.	103.	100.	100.	99.	109.	112.	116.	116.	116.	107.	111.	116.	111.	115.	115.	116.	120.	122.	118.	112.	116.	122.	126.	126.	126.	118.	117.	120.	119.	113.	109.	104.	106.	107.	107.	102.	103.	105.	109.	115.	119.	118.	120.	120.	121.	118.	113.	110.	111.	117.	116.	109.	115.	111.	113.	114.	105.	108.	108.	111.	115.	119.	121.	121.	118.	116.	117.	116.	121.	119.	118.	116.	111.	109.	115.	113.	116.	115.	107.	100.	99.	96.	93.	92.	92.	91.	91.	86.	79.	79.	77.	76.	72.	70.
105.	96.	101.	95.	94.	105.	100.	95.	96.	96.	100.	104.	104.	102.	111.	110.	109.	112.	103.	99.	100.	100.	98.	94.	89.	85.	84.	84.	95.	98.	96.	80.	87.	89.	88.	82.	82.	80.	83.	84.	80.	81.	86.	90.	95.	99.	98.	99.	98.	97.	100.	102.	110.	110.	110.	109.	118.	121.	109.	115.	114.	114.	118.	118.	117.	113.	114.	124.	126.	125.	124.	121.	120.	117.	111.	106.	103.	102.	104.	104.	109.	104.	105.	107.	106.	114.	119.	118.	118.	120.	114.	109.	108.	111.	113.	117.	118.	114.	113.	114.	114.	114.	107.	109.	113.	110.	111.	115.	117.	120.	119.	117.	117.	119.	120.	115.	111.	111.	111.	109.	111.	111.	112.	117.	113.	101.	97.	94.	92.	88.	88.	92.	91.	88.	79.	77.	78.	75.	71.	74.
109.	100.	99.	94.	95.	99.	102.	99.	97.	102.	112.	110.	102.	101.	109.	113.	109.	108.	101.	109.	113.	109.	101.	96.	93.	92.	86.	91.	92.	92.	99.	94.	81.	84.	84.	84.	81.	79.	79.	79.	83.	82.	87.	86.	95.	96.	96.	108.	96.	98.	101.	103.	105.	107.	107.	111.	118.	120.	112.	112.	111.	113.	118.	119.	118.	116.	113.	123.	124.	123.	122.	117.	113.	111.	106.	103.	103.	104.	111.	106.	109.	112.	110.	109.	108.	114.	118.	118.	117.	115.	114.	118.	118.	111.	109.	113.	118.	117.	118.	113.	113.	117.	104.	107.	113.	108.	108.	108.	112.	115.	114.	115.	114.	115.	121.	111.	110.	109.	108.	108.	108.	108.	108.	111.	111.	106.	99.	98.	92.	90.	91.	94.	92.	87.	78.	77.	84.	79.	76.	70.
105.	99.	95.	95.	95.	97.	103.	100.	98.	100.	111.	113.	108.	102.	105.	113.	110.	109.	110.	119.	117.	111.	101.	96.	96.	99.	86.	89.	92.	87.	89.	99.	85.	79.	83.	83.	82.	85.	81.	81.	85.	82.	82.	84.	90.	97.	96.	106.	98.	99.	103.	107.	107.	107.	108.	111.	115.	118.	114.	119.	110.	111.	119.	121.	122.	120.	113.	119.	122.	122.	117.	114.	111.	110.	110.	105.	106.	109.	114.	114.	114.	115.	114.	112.	108.	113.	117.	120.	114.	113.	111.	120.	119.	113.	114.	117.	116.	117.	117.	114.	111.	116.	106.	106.	114.	109.	108.	111.	110.	112.	115.	114.	113.	113.	117.	111.	110.	108.	108.	107.	109.	105.	107.	106.	103.	103.	102.	101.	93.	92.	95.	93.	91.	91.	79.	73.	81.	84.	78.	73.
102.	103.	98.	96.	101.	98.	101.	100.	98.	105.	107.	112.	112.	115.	113.	110.	109.	114.	121.	121.	110.	106.	104.	105.	103.	96.	87.	86.	91.	88.	84.	87.	91.	82.	82.	84.	83.	87.	91.	93.	87.	79.	84.	85.	91.	93.	92.	100.	97.	100.	106.	103.	105.	110.	110.	110.	114.	116.	114.	114.	113.	107.	112.	115.	115.	114.	113.	120.	121.	124.	107.	108.	110.	105.	105.	103.	106.	113.	115.	115.	116.	119.	115.	112.	108.	115.	114.	114.	111.	113.	113.	119.	119.	113.	112.	113.	115.	115.	114.	114.	117.	113.	105.	110.	109.	110.	113.	110.	110.	112.	115.	114.	117.	117.	115.	114.	112.	109.	111.	109.	109.	108.	103.	105.	106.	107.	104.	97.	97.	94.	94.	94.	93.	90.	80.	74.	78.	80.	78.	73.
103.	103.	98.	100.	103.	102.	103.	102.	102.	109.	111.	111.	115.	124.	120.	118.	122.	119.	117.	118.	117.	115.	112.	103.	100.	92.	84.	83.	89.	92.	91.	85.	88.	90.	94.	98.	99.	98.	100.	101.	93.	87.	81.	95.	91.	89.	92.	94.	99.	91.	102.	104.	105.	105.	107.	112.	114.	115.	114.	110.	110.	116.	121.	118.	111.	120.	122.	122.	121.	115.	110.	109.	106.	107.	107.	107.	112.	116.	114.	109.	112.	119.	117.	116.	116.	114.	110.	107.	102.	111.	118.	117.	115.	113.	108.	106.	110.	111.	110.	109.	110.	106.	104.	115.	116.	108.	105.	105.	110.	111.	113.	113.	117.	120.	117.	110.	107.	107.	111.	114.	110.	105.	103.	103.	103.	105.	103.	99.	97.	94.	92.	96.	97.	91.	83.	80.	75.	71.	71.	68.
109.	106.	103.	102.	102.	103.	102.	103.	104.	112.	113.	117.	113.	125.	127.	128.	128.	130.	127.	123.	124.	125.	124.	112.	103.	98.	90.	91.	87.	90.	87.	91.	85.	96.	99.	97.	97.	98.	99.	96.	88.	88.	82.	91.	93.	92.	89.	92.	100.	91.	105.	106.	104.	102.	102.	109.	112.	114.	112.	113.	119.	120.	112.	117.	111.	117.	117.	122.	121.	116.	107.	110.	105.	108.	118.	118.	117.	111.	113.	111.	110.	119.	116.	115.	115.	113.	107.	107.	105.	118.	120.	113.	109.	110.	108.	107.	108.	107.	107.	107.	112.	106.	105.	113.	116.	107.	104.	103.	108.	110.	115.	115.	116.	121.	118.	108.	107.	109.	115.	114.	107.	104.	103.	102.	103.	107.	106.	103.	94.	92.	93.	96.	94.	90.	83.	80.	74.	69.	68.	67.
117.	110.	104.	105.	104.	104.	103.	101.	107.	111.	113.	119.	124.	123.	127.	130.	125.	128.	132.	133.	131.	123.	115.	111.	107.	102.	99.	96.	93.	89.	87.	89.	83.	89.	97.	99.	98.	98.	97.	94.	84.	82.	84.	85.	89.	87.	98.	96.	98.	97.	100.	104.	107.	106.	103.	108.	110.	113.	113.	116.	111.	108.	114.	125.	125.	112.	110.	121.	118.	116.	116.	110.	110.	114.	113.	116.	117.	113.	112.	113.	109.	115.	117.	114.	114.	113.	103.	103.	120.	122.	121.	113.	105.	107.	107.	105.	107.	105.	104.	106.	110.	107.	112.	110.	112.	107.	107.	103.	107.	112.	115.	119.	118.	119.	115.	110.	109.	111.	108.	108.	105.	102.	104.	106.	106.	103.	106.	105.	98.	95.	93.	96.	94.	88.	84.	78.	69.	67.	66.	65.
119.	113.	106.	109.	112.	105.	102.	102.	107.	108.	112.	123.	125.	128.	124.	128.	124.	128.	135.	130.	128.	127.	117.	109.	108.	103.	100.	98.	95.	89.	89.	88.	85.	90.	94.	102.	101.	104.	99.	96.	83.	82.	81.	79.	81.	85.	89.	96.	94.	97.	99.	103.	106.	108.	105.	108.	110.	108.	107.	107.	105.	110.	121.	123.	122.	118.	110.	118.	119.	115.	117.	115.	113.	111.	111.	113.	117.	113.	113.	113.	112.	112.	115.	114.	116.	115.	103.	111.	124.	122.	119.	114.	106.	106.	107.	103.	109.	109.	106.	104.	110.	108.	111.	112.	110.	111.	108.	104.	106.	112.	116.	120.	120.	118.	111.	110.	107.	112.	107.	105.	104.	104.	106.	107.	104.	101.	100.	105.	100.	96.	94.	93.	90.	85.	83.	71.	68.	67.	65.	64.
121.	114.	110.	112.	112.	108.	101.	104.	109.	114.	119.	126.	124.	128.	128.	123.	127.	131.	132.	126.	124.	126.	116.	109.	106.	101.	98.	99.	99.	97.	94.	90.	86.	89.	92.	96.	103.	106.	102.	92.	84.	82.	81.	84.	76.	82.	83.	90.	96.	93.	96.	101.	103.	104.	108.	108.	109.	103.	103.	102.	107.	116.	114.	116.	120.	121.	120.	119.	120.	118.	117.	115.	114.	115.	114.	115.	113.	115.	113.	113.	110.	105.	108.	112.	114.	112.	104.	120.	123.	120.	119.	112.	112.	112.	109.	104.	105.	111.	107.	108.	110.	110.	109.	109.	110.	107.	105.	104.	104.	113.	117.	118.	118.	119.	111.	114.	111.	112.	109.	104.	108.	106.	104.	103.	103.	103.	97.	97.	97.	89.	91.	85.	82.	79.	74.	71.	67.	67.	64.	64.
120.	121.	113.	110.	109.	113.	105.	103.	115.	116.	123.	123.	122.	121.	123.	126.	125.	126.	127.	124.	124.	123.	119.	115.	111.	109.	103.	97.	98.	101.	101.	96.	90.	89.	88.	88.	89.	95.	100.	105.	106.	92.	83.	80.	81.	85.	81.	84.	88.	91.	87.	96.	98.	100.	106.	107.	101.	97.	99.	102.	102.	103.	111.	118.	119.	118.	118.	120.	121.	118.	114.	106.	106.	111.	112.	112.	113.	111.	112.	115.	113.	107.	108.	110.	110.	107.	117.	121.	123.	121.	118.	118.	114.	111.	107.	101.	102.	106.	108.	107.	108.	108.	105.	110.	109.	107.	105.	104.	102.	107.	112.	116.	122.	116.	113.	112.	110.	112.	106.	104.	107.	105.	105.	104.	106.	103.	100.	98.	94.	82.	83.	77.	75.	70.	71.	70.	68.	67.	65.	66.
121.	125.	119.	118.	113.	117.	112.	104.	115.	117.	121.	120.	121.	120.	123.	124.	131.	127.	124.	123.	122.	123.	120.	116.	114.	113.	110.	104.	102.	101.	102.	99.	93.	90.	88.	87.	89.	95.	95.	95.	97.	97.	91.	81.	80.	84.	83.	82.	83.	83.	83.	91.	95.	100.	106.	103.	93.	94.	97.	100.	104.	106.	118.	119.	117.	118.	119.	115.	116.	120.	119.	110.	104.	106.	106.	112.	110.	109.	113.	113.	110.	103.	113.	107.	102.	105.	118.	122.	123.	122.	122.	119.	115.	108.	106.	102.	110.	105.	105.	105.	106.	106.	108.	112.	104.	105.	107.	104.	100.	102.	107.	110.	117.	113.	112.	112.	110.	113.	108.	102.	106.	104.	104.	108.	109.	104.	98.	97.	87.	81.	83.	76.	73.	69.	73.	69.	68.	67.	65.	64.
122.	119.	122.	125.	125.	114.	110.	107.	122.	123.	122.	121.	123.	123.	123.	124.	133.	135.	132.	124.	124.	125.	120.	118.	114.	113.	112.	113.	110.	107.	104.	102.	99.	96.	92.	90.	90.	88.	89.	87.	91.	90.	95.	88.	76.	74.	81.	82.	88.	83.	79.	86.	85.	90.	100.	100.	94.	94.	94.	99.	114.	115.	119.	117.	116.	117.	113.	110.	115.	119.	119.	112.	112.	114.	111.	115.	113.	109.	109.	107.	109.	108.	103.	102.	102.	114.	120.	121.	122.	120.	120.	117.	113.	102.	103.	101.	107.	108.	105.	101.	99.	100.	101.	107.	102.	101.	105.	107.	99.	101.	101.	102.	105.	110.	107.	108.	113.	115.	109.	107.	103.	105.	110.	111.	108.	104.	100.	97.	96.	81.	79.	74.	70.	70.	70.	68.	69.	69.	64.	63.
121.	121.	124.	130.	131.	115.	109.	109.	123.	123.	123.	125.	131.	131.	128.	124.	130.	134.	134.	127.	123.	124.	122.	118.	114.	116.	117.	115.	111.	106.	107.	105.	98.	96.	93.	90.	87.	84.	86.	87.	87.	89.	89.	92.	82.	78.	82.	82.	86.	80.	80.	80.	84.	90.	93.	102.	94.	92.	98.	106.	115.	112.	116.	118.	114.	114.	109.	109.	116.	115.	117.	114.	111.	113.	112.	112.	111.	107.	107.	105.	104.	101.	99.	100.	110.	115.	119.	120.	121.	122.	118.	113.	108.	101.	100.	100.	105.	109.	106.	102.	99.	101.	100.	100.	99.	104.	107.	110.	101.	99.	98.	100.	103.	109.	109.	107.	111.	115.	110.	107.	106.	111.	114.	113.	109.	108.	101.	98.	99.	82.	76.	72.	71.	70.	68.	67.	66.	65.	64.	63.
121.	122.	128.	134.	122.	117.	117.	116.	127.	125.	132.	138.	137.	137.	135.	126.	129.	133.	131.	129.	125.	123.	118.	114.	113.	119.	119.	118.	115.	113.	110.	107.	106.	104.	99.	90.	85.	88.	92.	88.	87.	87.	88.	91.	90.	84.	81.	83.	77.	78.	79.	81.	98.	99.	93.	94.	93.	100.	111.	114.	117.	115.	112.	112.	114.	115.	110.	103.	102.	109.	113.	113.	106.	111.	112.	113.	110.	103.	101.	95.	97.	101.	112.	113.	111.	114.	115.	120.	120.	118.	117.	109.	101.	101.	101.	100.	101.	102.	101.	100.	104.	114.	104.	100.	102.	103.	102.	104.	106.	103.	102.	103.	103.	105.	105.	108.	108.	111.	103.	107.	108.	109.	113.	112.	111.	109.	106.	97.	95.	84.	74.	71.	71.	75.	68.	65.	64.	64.	64.	63.
129.	119.	119.	126.	117.	116.	119.	120.	132.	132.	134.	136.	139.	141.	137.	131.	131.	135.	135.	126.	123.	123.	121.	118.	119.	125.	120.	117.	113.	112.	109.	106.	106.	106.	100.	94.	86.	94.	100.	89.	85.	86.	92.	83.	84.	84.	80.	75.	85.	88.	84.	82.	95.	101.	95.	93.	100.	99.	100.	101.	103.	107.	105.	108.	106.	105.	101.	99.	106.	110.	113.	112.	106.	114.	113.	113.	107.	102.	99.	95.	98.	102.	110.	113.	113.	111.	114.	116.	118.	115.	116.	111.	102.	100.	99.	101.	102.	99.	102.	100.	106.	114.	106.	104.	102.	101.	101.	102.	100.	104.	103.	104.	102.	99.	104.	109.	106.	105.	103.	103.	103.	108.	109.	111.	111.	110.	104.	98.	91.	87.	72.	71.	73.	80.	69.	63.	64.	61.	65.	65.
124.	123.	120.	124.	116.	116.	120.	122.	126.	127.	132.	135.	140.	139.	135.	135.	132.	138.	138.	127.	127.	129.	127.	124.	121.	123.	118.	117.	113.	113.	110.	105.	101.	105.	105.	105.	102.	90.	96.	93.	87.	87.	88.	79.	81.	85.	86.	83.	87.	89.	85.	82.	90.	97.	94.	90.	101.	104.	97.	97.	98.	100.	99.	100.	99.	99.	94.	97.	111.	110.	116.	113.	103.	114.	114.	111.	106.	101.	100.	95.	94.	106.	110.	112.	109.	111.	113.	116.	116.	115.	113.	108.	101.	101.	100.	101.	102.	101.	102.	101.	106.	113.	107.	104.	103.	103.	101.	101.	100.	108.	101.	100.	100.	97.	101.	105.	103.	102.	104.	102.	104.	107.	110.	110.	113.	110.	98.	100.	93.	89.	73.	71.	76.	81.	70.	65.	65.	67.	64.	65.
130.	134.	133.	131.	122.	124.	123.	120.	122.	124.	129.	129.	139.	133.	131.	133.	131.	137.	139.	141.	136.	134.	128.	127.	126.	121.	120.	118.	116.	113.	111.	107.	109.	112.	108.	112.	114.	98.	96.	90.	87.	87.	87.	79.	79.	79.	88.	98.	85.	83.	80.	77.	85.	89.	88.	89.	97.	101.	93.	93.	96.	96.	99.	92.	94.	93.	93.	101.	107.	111.	111.	104.	102.	106.	107.	105.	105.	102.	94.	92.	93.	97.	109.	115.	111.	113.	112.	114.	111.	110.	112.	102.	99.	100.	100.	100.	101.	101.	105.	111.	110.	111.	113.	106.	107.	111.	104.	102.	103.	108.	102.	100.	98.	98.	98.	98.	105.	107.	103.	103.	105.	107.	107.	107.	110.	109.	96.	98.	96.	94.	77.	74.	77.	80.	71.	69.	79.	82.	70.	74.
131.	133.	132.	129.	128.	132.	132.	141.	138.	131.	130.	128.	128.	128.	126.	129.	129.	132.	138.	141.	138.	134.	128.	126.	130.	122.	119.	119.	118.	113.	116.	118.	113.	117.	116.	114.	112.	97.	92.	89.	85.	85.	82.	79.	79.	79.	79.	89.	100.	83.	81.	79.	82.	85.	90.	94.	98.	91.	94.	91.	97.	106.	103.	93.	88.	91.	92.	106.	108.	107.	104.	101.	100.	100.	103.	107.	102.	97.	93.	92.	94.	95.	97.	110.	114.	113.	104.	107.	115.	113.	109.	101.	98.	100.	101.	100.	103.	103.	104.	110.	108.	104.	107.	110.	111.	114.	110.	105.	103.	106.	105.	99.	98.	100.	96.	103.	108.	108.	105.	99.	102.	108.	110.	105.	102.	98.	94.	94.	93.	86.	79.	77.	83.	86.	73.	75.	91.	85.	67.	67.
129.	126.	125.	133.	132.	131.	137.	138.	137.	135.	133.	128.	127.	128.	126.	128.	129.	129.	130.	138.	138.	132.	127.	129.	132.	122.	125.	118.	117.	119.	125.	125.	117.	115.	123.	116.	112.	105.	93.	89.	85.	83.	79.	79.	79.	79.	79.	82.	98.	94.	88.	83.	83.	87.	87.	91.	94.	92.	96.	92.	93.	104.	102.	93.	89.	90.	93.	103.	106.	107.	104.	100.	103.	106.	108.	107.	102.	99.	93.	94.	93.	98.	97.	102.	112.	115.	108.	107.	112.	111.	107.	98.	98.	102.	102.	101.	102.	103.	102.	104.	105.	103.	105.	108.	113.	111.	111.	105.	102.	107.	107.	101.	100.	100.	100.	99.	104.	105.	103.	99.	102.	106.	108.	101.	98.	96.	92.	88.	87.	84.	79.	73.	78.	87.	77.	79.	92.	82.	68.	67.
131.	129.	136.	144.	141.	136.	138.	136.	132.	132.	136.	132.	126.	129.	128.	129.	129.	128.	130.	133.	136.	132.	132.	133.	131.	126.	131.	126.	115.	120.	118.	122.	122.	121.	122.	114.	107.	103.	95.	90.	88.	92.	79.	79.	79.	79.	79.	81.	83.	89.	92.	93.	88.	84.	86.	83.	84.	87.	86.	89.	92.	95.	90.	88.	87.	88.	90.	92.	102.	105.	103.	100.	109.	110.	111.	108.	101.	94.	94.	96.	108.	109.	108.	105.	112.	110.	104.	100.	101.	102.	103.	99.	100.	101.	105.	104.	102.	104.	106.	104.	106.	105.	105.	108.	110.	109.	110.	106.	102.	103.	103.	98.	96.	98.	99.	105.	101.	97.	100.	104.	101.	101.	100.	96.	96.	95.	93.	87.	86.	81.	77.	73.	74.	86.	86.	78.	80.	82.	79.	69.
127.	129.	142.	145.	139.	139.	138.	135.	130.	127.	129.	129.	127.	129.	131.	131.	131.	129.	128.	130.	133.	133.	133.	130.	126.	124.	128.	131.	121.	124.	120.	117.	118.	119.	119.	114.	105.	99.	92.	91.	92.	94.	80.	79.	79.	79.	80.	79.	82.	92.	92.	89.	88.	78.	83.	82.	86.	88.	93.	91.	90.	88.	87.	87.	87.	87.	91.	92.	98.	101.	102.	101.	106.	105.	108.	105.	104.	92.	96.	101.	114.	110.	105.	106.	107.	110.	110.	102.	102.	100.	100.	100.	98.	99.	102.	105.	106.	106.	105.	103.	105.	104.	104.	108.	112.	109.	110.	105.	100.	99.	99.	96.	96.	95.	97.	103.	98.	96.	99.	102.	97.	99.	99.	96.	94.	99.	101.	89.	87.	81.	79.	77.	83.	87.	87.	79.	77.	89.	86.	72.
133.	129.	138.	140.	140.	134.	128.	126.	127.	125.	127.	129.	130.	127.	130.	127.	125.	129.	128.	131.	131.	131.	129.	129.	127.	130.	129.	128.	124.	123.	118.	118.	120.	114.	116.	115.	104.	97.	91.	96.	94.	91.	82.	79.	79.	79.	77.	78.	82.	86.	85.	87.	92.	81.	82.	81.	82.	87.	103.	102.	95.	91.	88.	90.	87.	90.	92.	95.	93.	101.	99.	100.	95.	97.	104.	106.	100.	98.	96.	104.	113.	109.	98.	97.	101.	108.	110.	106.	101.	100.	106.	100.	101.	101.	102.	105.	107.	106.	108.	107.	105.	106.	107.	106.	109.	107.	103.	102.	99.	95.	97.	100.	94.	92.	93.	99.	100.	98.	97.	97.	94.	98.	104.	96.	99.	106.	102.	98.	91.	90.	77.	81.	84.	83.	82.	78.	80.	95.	81.	74.
130.	128.	132.	136.	131.	126.	127.	126.	126.	125.	124.	128.	128.	124.	123.	122.	124.	129.	131.	130.	129.	132.	132.	127.	125.	131.	134.	136.	130.	130.	123.	120.	126.	121.	114.	107.	104.	100.	93.	97.	98.	94.	88.	81.	79.	79.	76.	75.	77.	79.	80.	77.	84.	83.	80.	83.	79.	84.	98.	104.	107.	97.	91.	93.	92.	92.	89.	92.	87.	97.	98.	96.	90.	95.	104.	101.	95.	99.	99.	105.	110.	109.	103.	102.	96.	103.	110.	112.	104.	103.	108.	110.	104.	100.	103.	104.	105.	109.	112.	107.	106.	106.	105.	103.	101.	101.	100.	101.	98.	97.	104.	106.	101.	94.	93.	100.	101.	101.	97.	96.	93.	99.	101.	96.	102.	102.	101.	100.	94.	92.	82.	79.	74.	74.	72.	79.	90.	88.	83.	79.
125.	126.	129.	131.	126.	126.	127.	126.	127.	127.	124.	127.	122.	122.	122.	122.	122.	131.	132.	130.	127.	129.	130.	125.	130.	134.	136.	133.	131.	130.	129.	123.	129.	127.	118.	112.	106.	109.	99.	96.	95.	95.	84.	78.	77.	78.	77.	76.	76.	78.	76.	75.	75.	84.	80.	82.	80.	82.	88.	102.	107.	105.	96.	92.	93.	95.	97.	96.	89.	89.	94.	92.	91.	98.	100.	99.	94.	102.	104.	111.	111.	108.	107.	102.	101.	105.	108.	110.	109.	104.	108.	112.	107.	105.	103.	106.	103.	105.	110.	108.	106.	103.	101.	101.	99.	102.	101.	99.	98.	96.	100.	99.	103.	97.	93.	103.	101.	103.	103.	98.	98.	98.	101.	97.	101.	98.	100.	96.	92.	92.	87.	79.	73.	73.	76.	83.	86.	87.	88.	82.
125.	127.	131.	126.	127.	127.	137.	136.	130.	129.	126.	122.	122.	122.	122.	128.	131.	132.	129.	129.	128.	131.	132.	134.	133.	139.	141.	135.	135.	132.	131.	128.	129.	128.	123.	115.	111.	114.	109.	107.	105.	93.	88.	90.	85.	77.	75.	77.	74.	75.	75.	75.	75.	80.	82.	80.	77.	79.	84.	95.	102.	105.	100.	107.	104.	99.	100.	101.	98.	93.	94.	90.	92.	104.	104.	91.	101.	105.	108.	111.	113.	110.	102.	96.	100.	106.	110.	111.	100.	102.	104.	112.	102.	101.	106.	107.	110.	109.	113.	108.	107.	104.	104.	103.	103.	100.	101.	98.	98.	96.	97.	99.	101.	101.	100.	99.	98.	99.	101.	98.	104.	103.	98.	101.	98.	96.	93.	91.	93.	98.	89.	74.	72.	71.	74.	78.	83.	87.	89.	85.
124.	130.	133.	128.	128.	133.	140.	142.	136.	133.	126.	122.	122.	123.	123.	127.	131.	129.	128.	129.	130.	131.	135.	134.	135.	139.	141.	138.	134.	132.	132.	129.	126.	127.	123.	119.	114.	115.	116.	107.	105.	99.	94.	108.	102.	84.	75.	76.	74.	74.	74.	74.	73.	74.	79.	80.	79.	78.	87.	91.	97.	101.	104.	107.	107.	107.	109.	104.	99.	100.	102.	93.	96.	103.	102.	96.	105.	101.	106.	106.	108.	110.	99.	94.	100.	102.	107.	103.	100.	101.	105.	113.	101.	98.	108.	111.	113.	109.	107.	107.	107.	105.	106.	106.	103.	102.	101.	100.	97.	97.	98.	102.	106.	104.	101.	93.	93.	94.	94.	100.	102.	105.	99.	103.	99.	97.	92.	91.	95.	99.	91.	75.	73.	71.	71.	78.	84.	86.	93.	85.
132.	126.	124.	125.	127.	127.	136.	142.	142.	136.	128.	123.	126.	129.	126.	126.	128.	128.	131.	130.	134.	141.	140.	137.	134.	135.	136.	140.	135.	132.	132.	131.	129.	125.	123.	119.	117.	118.	118.	111.	105.	99.	97.	104.	108.	93.	80.	79.	76.	76.	72.	72.	75.	75.	76.	83.	82.	82.	82.	82.	88.	97.	106.	97.	107.	109.	108.	110.	104.	110.	101.	100.	106.	103.	97.	102.	105.	102.	106.	101.	104.	102.	97.	96.	97.	97.	99.	99.	99.	102.	103.	113.	108.	104.	105.	107.	107.	107.	104.	106.	103.	105.	106.	105.	105.	102.	101.	102.	98.	97.	101.	102.	104.	102.	97.	94.	95.	91.	93.	94.	102.	106.	102.	101.	102.	98.	96.	91.	94.	96.	86.	75.	69.	69.	69.	76.	83.	93.	100.	92.
132.	132.	131.	127.	129.	126.	128.	135.	136.	133.	135.	130.	125.	127.	128.	130.	134.	133.	133.	138.	139.	141.	140.	136.	138.	134.	134.	138.	137.	135.	134.	135.	131.	129.	128.	126.	120.	118.	117.	113.	108.	102.	100.	98.	95.	91.	87.	87.	81.	78.	79.	78.	78.	77.	78.	81.	82.	78.	81.	86.	87.	90.	102.	99.	103.	103.	108.	108.	109.	109.	99.	106.	101.	95.	100.	101.	104.	107.	105.	103.	100.	95.	96.	94.	95.	99.	100.	100.	98.	102.	101.	105.	107.	100.	100.	100.	105.	105.	108.	105.	106.	108.	108.	111.	106.	101.	99.	102.	101.	101.	99.	101.	105.	105.	100.	99.	94.	93.	95.	101.	104.	106.	104.	97.	95.	96.	94.	95.	91.	92.	87.	72.	67.	69.	71.	72.	81.	92.	97.	91.
133.	134.	133.	132.	127.	134.	133.	135.	137.	135.	134.	131.	126.	128.	130.	131.	139.	137.	141.	145.	142.	140.	138.	136.	135.	135.	135.	137.	136.	135.	133.	134.	130.	128.	127.	128.	124.	121.	121.	121.	118.	105.	99.	96.	94.	91.	90.	88.	83.	79.	88.	79.	80.	77.	80.	80.	80.	79.	84.	92.	87.	85.	91.	98.	99.	103.	107.	109.	111.	109.	97.	100.	95.	95.	103.	102.	104.	106.	105.	105.	103.	97.	95.	95.	95.	96.	99.	98.	94.	97.	103.	101.	102.	103.	97.	97.	99.	102.	102.	103.	105.	107.	109.	112.	107.	100.	100.	104.	102.	98.	98.	98.	101.	102.	101.	98.	94.	93.	98.	102.	97.	104.	103.	94.	91.	92.	92.	97.	91.	90.	86.	72.	69.	69.	65.	68.	76.	88.	96.	90.
130.	130.	128.	123.	121.	126.	128.	133.	135.	131.	132.	140.	142.	138.	138.	133.	139.	136.	141.	147.	145.	137.	133.	137.	136.	140.	140.	137.	137.	138.	134.	135.	133.	127.	124.	125.	126.	121.	119.	116.	109.	103.	99.	97.	96.	95.	91.	89.	80.	78.	84.	83.	77.	77.	77.	79.	80.	81.	81.	82.	85.	83.	83.	85.	89.	100.	103.	108.	111.	108.	99.	95.	96.	105.	109.	106.	102.	106.	107.	104.	101.	96.	103.	101.	96.	97.	101.	103.	100.	97.	91.	94.	101.	104.	98.	95.	95.	95.	97.	101.	106.	106.	108.	108.	108.	104.	103.	106.	101.	99.	95.	97.	97.	99.	99.	99.	99.	94.	100.	95.	90.	100.	102.	92.	91.	91.	88.	95.	90.	87.	87.	73.	73.	78.	67.	64.	70.	82.	85.	90.
128.	127.	127.	121.	117.	116.	122.	130.	133.	132.	128.	135.	141.	136.	139.	134.	132.	134.	138.	143.	140.	133.	132.	136.	140.	143.	142.	140.	138.	137.	135.	133.	132.	126.	123.	121.	117.	117.	113.	114.	116.	104.	114.	113.	99.	95.	95.	88.	79.	78.	78.	77.	78.	79.	77.	80.	79.	76.	79.	77.	80.	82.	84.	82.	83.	97.	99.	104.	107.	102.	99.	96.	97.	106.	108.	102.	101.	105.	106.	102.	100.	100.	100.	94.	96.	93.	97.	100.	99.	99.	94.	94.	94.	101.	101.	96.	94.	93.	93.	99.	104.	106.	107.	105.	105.	104.	105.	105.	98.	96.	91.	91.	95.	100.	100.	101.	100.	95.	94.	92.	90.	94.	96.	92.	96.	97.	97.	90.	89.	85.	84.	72.	73.	73.	68.	70.	70.	81.	89.	88.
125.	127.	128.	121.	117.	116.	122.	127.	129.	127.	126.	129.	138.	130.	133.	134.	135.	141.	139.	141.	139.	132.	133.	132.	134.	134.	137.	138.	138.	134.	136.	135.	137.	135.	134.	130.	130.	130.	126.	126.	124.	110.	112.	115.	100.	93.	96.	92.	79.	78.	78.	75.	79.	77.	78.	80.	78.	78.	76.	76.	78.	77.	84.	83.	92.	99.	105.	107.	107.	101.	95.	97.	101.	114.	111.	103.	104.	105.	106.	102.	100.	100.	99.	97.	96.	94.	95.	97.	96.	97.	96.	93.	93.	94.	99.	98.	96.	93.	94.	102.	105.	105.	106.	104.	103.	106.	106.	108.	104.	96.	91.	93.	91.	97.	99.	98.	98.	98.	99.	96.	89.	97.	95.	91.	91.	97.	94.	90.	88.	89.	84.	72.	70.	70.	70.	71.	74.	82.	84.	85.
123.	125.	127.	122.	122.	123.	125.	125.	123.	126.	123.	123.	132.	128.	132.	137.	141.	141.	142.	138.	138.	141.	139.	136.	137.	134.	135.	133.	130.	128.	130.	135.	132.	136.	133.	132.	131.	129.	127.	126.	123.	122.	117.	113.	103.	93.	90.	90.	80.	77.	76.	79.	78.	77.	76.	77.	80.	78.	80.	82.	79.	77.	78.	81.	84.	90.	94.	106.	103.	102.	95.	95.	102.	115.	114.	107.	109.	109.	105.	93.	96.	96.	99.	97.	95.	92.	90.	95.	97.	100.	99.	98.	95.	94.	92.	94.	94.	97.	104.	106.	103.	105.	105.	101.	105.	104.	106.	107.	102.	94.	100.	101.	97.	93.	94.	97.	94.	102.	101.	101.	92.	95.	92.	91.	88.	94.	89.	81.	90.	86.	85.	73.	71.	71.	77.	89.	77.	75.	80.	81.
118.	123.	125.	119.	118.	127.	125.	122.	126.	126.	121.	121.	129.	128.	132.	136.	139.	137.	139.	136.	134.	139.	140.	139.	137.	129.	128.	127.	126.	125.	126.	136.	135.	137.	132.	132.	129.	127.	124.	125.	124.	121.	117.	113.	102.	93.	91.	89.	85.	78.	76.	79.	78.	74.	76.	75.	76.	78.	74.	78.	79.	81.	85.	86.	83.	84.	87.	96.	97.	100.	96.	96.	101.	113.	113.	110.	110.	110.	99.	91.	94.	98.	99.	95.	91.	87.	86.	90.	98.	100.	96.	98.	98.	95.	95.	97.	92.	98.	102.	104.	105.	104.	105.	104.	104.	105.	105.	102.	98.	96.	99.	101.	101.	94.	92.	94.	92.	97.	100.	102.	95.	92.	92.	90.	88.	93.	86.	79.	91.	89.	85.	77.	72.	71.	79.	85.	80.	76.	79.	81.